ply
format ascii 1.0
comment author Paulo Abelha (p.abelha at abdn ac uk)
element vertex 716
property float x
property float y
property float z
property int segm
property float nx
property float ny
property float nz
property uchar red
property uchar green
property uchar blue
end_header
-0.12098 0.0076974 0.0061225 1 -0.46857 -0.78522 -0.40482 255 0 0
-0.12259 0.0072475 -0.0032067 1 -0.44671 -0.78838 -0.42297 255 0 0
-0.12102 0.0078075 -0.0009015 1 -0.1689 -0.0062075 0.98561 255 0 0
-0.12203 0.0072774 0.0071155 1 -0.018607 0.010431 -0.99977 255 0 0
-0.12052 0.0077774 0.0081545 1 0.075994 0.99117 -0.10863 255 0 0
-0.11951 0.0082374 0.0070225 1 0.020489 0.99974 0.010058 255 0 0
-0.12127 0.0076575 0.0020785 1 0.49094 -0.63451 -0.59697 255 0 0
-0.12026 0.0080174 0.0034705 1 0.056211 -0.64008 0.76625 255 0 0
-0.12094 0.0078075 0.0005145 1 -0.16898 -0.0064351 0.9856 255 0 0
-0.12115 0.0076574 0.0047625 1 -0.16925 -0.0060868 0.98555 255 0 0
-0.11943 0.0082974 0.0053935 1 0.38173 0.19624 -0.9032 255 0 0
-0.11986 0.0082375 -0.0008655 1 -0.16891 -0.0061158 0.98561 255 0 0
-0.12206 0.0074775 -0.0047197 1 0.018661 -0.0102 0.99977 255 0 0
-0.12069 0.0079975 -0.0048174 1 -0.01856 0.01041 -0.99977 255 0 0
-0.12213 0.0073675 -0.0001515 1 -0.018603 0.010442 -0.99977 255 0 0
-0.12011 0.0080875 0.0022805 1 -0.018609 0.010433 -0.99977 255 0 0
-0.12176 0.0074475 0.0033985 1 0.06382 0.99795 -0.0043093 255 0 0
-0.11443 0.0073875 -0.0050537 1 0.050348 -0.99869 -0.0095477 255 0 0
-0.11568 0.0097774 0.0019915 1 -0.018612 0.010403 -0.99977 255 0 0
-0.11559 0.0085674 0.0080705 1 0.15855 -0.013392 0.98726 255 0 0
-0.11479 0.0074774 0.0080445 1 0.59981 0.58719 -0.54354 255 0 0
-0.11706 0.0092374 0.0030385 1 0.018584 -0.01041 0.99977 255 0 0
-0.11707 0.0087875 -0.0049902 1 -0.018606 0.010387 -0.99977 255 0 0
-0.11616 0.0095074 0.0068005 1 -0.018634 0.010369 -0.99977 255 0 0
-0.1153 0.0098974 0.0033225 1 -0.018608 0.010461 -0.99977 255 0 0
-0.11523 0.010018 -0.0022626 1 -0.11586 0.080324 0.99001 255 0 0
-0.1176 0.0091075 -0.0015491 1 -0.16883 -0.0063632 0.98563 255 0 0
-0.11649 0.0094874 0.00070451 1 -0.018634 0.010423 -0.99977 255 0 0
-0.11698 0.0093775 -0.0037395 1 -0.018563 0.010399 -0.99977 255 0 0
-0.11597 0.0079775 -0.005019 1 0.049751 -0.99868 -0.012416 255 0 0
-0.11574 0.0095575 -0.0050069 1 -0.16916 -0.0063244 0.98557 255 0 0
-0.11702 0.0076874 0.0080885 1 0.473 0.74251 -0.47428 255 0 0
-0.11493 0.010158 -0.0036424 1 0.018493 -0.010075 0.99978 255 0 0
-0.11732 0.0091875 -0.0001635 1 0.060108 0.99813 0.011034 255 0 0
-0.11823 0.0087374 0.0058625 1 -0.018603 0.01038 -0.99977 255 0 0
-0.1146 0.0095374 0.0080625 1 -0.16909 -0.0060672 0.98558 255 0 0
-0.11444 0.010188 0.0053925 1 0.057381 -0.99598 -0.068722 255 0 0
-0.11858 0.0087675 -0.0035157 1 0.018622 -0.0104 0.99977 255 0 0
-0.11657 0.0095075 -0.0022892 1 -0.018608 0.010443 -0.99977 255 0 0
-0.11848 0.0086874 0.0032875 1 0.063572 0.99793 0.0097782 255 0 0
-0.11666 0.0093474 0.0051325 1 0.018588 -0.010491 0.99977 255 0 0
-0.11861 0.0087375 -0.0021201 1 -0.018622 0.010393 -0.99977 255 0 0
-0.1189 0.0085474 0.0021805 1 -0.018637 0.010417 -0.99977 255 0 0
-0.11535 0.0098474 0.0046885 1 0.018631 -0.010357 0.99977 255 0 0
-0.11769 0.0090174 0.0017665 1 0.048965 -0.99873 -0.012228 255 0 0
-0.11641 0.0095475 -0.0010435 1 0.38813 -0.63578 -0.66718 255 0 0
-0.11682 0.0092274 0.0081005 1 0.032655 -0.96435 -0.26262 255 0 0
-0.11878 0.0084774 0.0081295 1 -0.99825 0.059054 -0.0013927 255 0 0
-0.11876 0.0086375 0.0003695 1 0.074416 0.65704 -0.75017 255 0 0
-0.11461 0.010238 -0.0011285 1 -0.16903 -0.006275 0.98559 255 0 0
-0.11558 0.0098474 -7.6492e-05 1 0.047234 -0.9988 -0.012755 255 0 0
-0.11863 0.0086174 0.0045545 1 -0.018595 0.010404 -0.99977 255 0 0
-0.11859 0.0087975 -0.0049217 1 0.4564 0.19932 -0.86716 255 0 0
-0.11444 0.010278 0.00019451 1 0.062066 0.99802 0.010029 255 0 0
-0.11752 0.0089974 0.0068765 1 -0.24696 0.94784 -0.20152 255 0 0
-0.1145 0.010218 0.0022965 1 -0.16903 -0.0066907 0.98559 255 0 0
-0.11353 0.010668 -0.0024446 1 -0.16885 -0.00636 0.98562 255 0 0
-0.11327 0.010738 -0.00089149 1 0.0062209 0.88203 -0.47116 255 0 0
-0.11408 0.0091975 -0.0050414 1 -0.16914 -0.0061835 0.98557 255 0 0
-0.11077 0.011198 -0.00033649 1 0.063447 0.99793 0.010345 255 0 0
-0.11122 0.011178 0.0025855 1 -0.16696 -0.0015477 0.98596 255 0 0
-0.11218 0.011008 0.0071645 1 0.062593 0.998 0.0088186 255 0 0
-0.11309 0.0074474 0.0080125 1 0.047821 -0.99878 -0.012149 255 0 0
-0.10941 0.011188 -0.0015951 1 0.048323 -0.99876 -0.01164 255 0 0
-0.11274 0.0098675 -0.0050594 1 0.018757 -0.010528 0.99977 255 0 0
-0.11021 0.011108 0.0078595 1 -0.018596 0.010416 -0.99977 255 0 0
-0.11039 0.0083274 0.0079715 1 -0.01857 0.010413 -0.99977 255 0 0
-0.11 0.0099174 0.0079805 1 -0.018629 0.010408 -0.99977 255 0 0
-0.11061 0.011148 0.0049515 1 -0.16906 -0.0064577 0.98559 255 0 0
-0.11129 0.010128 0.0080065 1 -0.018643 0.010449 -0.99977 255 0 0
-0.11233 0.011048 0.0016035 1 0.018503 -0.010352 0.99978 255 0 0
-0.1119 0.011148 0.0051875 1 -0.16885 -0.0061343 0.98562 255 0 0
-0.11154 0.0084875 -0.0050961 1 0.046432 0.94562 -0.32194 255 0 0
-0.11 0.011228 -0.0050512 1 -0.49851 -0.35674 0.79008 255 0 0
-0.11191 0.0076574 0.0079925 1 -0.081114 -0.0081035 0.99667 255 0 0
-0.11314 0.010728 0.0026415 1 0.064022 0.99791 0.0089376 255 0 0
-0.11359 0.010578 0.0011145 1 -0.018634 0.010385 -0.99977 255 0 0
-0.11024 0.011228 -0.0038612 1 0.018466 -0.010573 0.99977 255 0 0
-0.1123 0.011088 -0.00011749 1 0.018635 -0.010358 0.99977 255 0 0
-0.11321 0.0089374 0.0080305 1 -0.018616 0.010432 -0.99977 255 0 0
-0.11218 0.011068 0.0034905 1 -0.16924 -0.0065538 0.98555 255 0 0
-0.11308 0.0082475 -0.0050699 1 0.016725 0.017962 0.9997 255 0 0
-0.11021 0.0094075 -0.0051114 1 -0.018599 0.010422 -0.99977 255 0 0
-0.11225 0.011168 -0.005055 1 -0.16886 -0.0062343 0.98562 255 0 0
-0.11318 0.010678 0.0042695 1 -0.99959 0.021462 0.01882 255 0 0
-0.11421 0.010298 0.0036025 1 -0.16881 -0.0057466 0.98563 255 0 0
-0.11006 0.011148 0.0038375 1 0.59846 0.58788 -0.54428 255 0 0
-0.11386 0.010368 0.0073965 1 -0.0186 0.010474 -0.99977 255 0 0
-0.1101 0.011178 0.00076751 1 0.047974 -0.99878 -0.011534 255 0 0
-0.11126 0.011238 -0.0030736 1 0.018778 -0.010297 0.99977 255 0 0
-0.11375 0.010598 -0.0050331 1 -0.01861 0.01042 -0.99977 255 0 0
-0.11261 0.011038 -0.0037936 1 0.018431 -0.010549 0.99977 255 0 0
-0.11002 0.0080675 -0.0051288 1 0.020903 0.99974 0.0094488 255 0 0
-0.11148 0.011228 -0.0016451 1 -0.01862 0.010436 -0.99977 255 0 0
-0.11138 0.011198 0.00080651 1 -0.16914 -0.0062978 0.98557 255 0 0
-0.11301 0.010718 0.0060805 1 0.047143 -0.99882 -0.01193 255 0 0
-0.11188 0.0089774 0.0080055 1 -0.69267 -0.72123 0.005284 255 0 0
-0.11136 0.010258 -0.0050811 1 -0.16901 -0.0064844 0.98559 255 0 0
-0.10989 0.011118 0.0060925 1 0.027378 -0.030238 0.99917 255 0 0
-0.11383 0.010578 -0.0038253 1 0.062921 0.99797 0.0098612 255 0 0
-0.11269 0.010028 0.0080315 1 0.055001 0.99847 -0.0063413 255 0 0
-0.11116 0.011138 0.0063565 1 -0.16901 -0.006173 0.9856 255 0 0
-0.10782 0.0086174 -0.0051641 1 0.062122 0.99802 0.0096692 255 0 0
-0.10628 0.010358 0.0079165 1 0.018616 -0.010308 0.99977 255 0 0
-0.1078 0.011158 -0.0027851 1 -0.018614 0.010389 -0.99977 255 0 0
-0.1057 0.011088 -0.00019749 1 -0.018573 0.010436 -0.99977 255 0 0
-0.10675 0.011088 0.0020285 1 -0.16879 -0.0059123 0.98563 255 0 0
-0.10791 0.0084874 0.0079265 1 0.062168 0.99802 0.0090545 255 0 0
-0.10548 0.011068 0.0010675 1 0.046377 -0.99881 -0.015365 255 0 0
-0.10921 0.011138 0.0022245 1 0.011658 -0.89699 -0.44189 255 0 0
-0.10829 0.011108 0.0031175 1 0.59888 0.58942 -0.54214 255 0 0
-0.10481 0.0098674 -0.0052071 1 0.023521 0.99959 -0.016455 255 0 0
-0.10649 0.011148 -0.0042362 1 0.66277 -0.50536 0.55258 255 0 0
-0.10859 0.0099374 -0.0051359 1 -0.018623 0.01042 -0.99977 255 0 0
-0.10828 0.010898 0.0079595 1 -0.018554 0.010417 -0.99977 255 0 0
-0.10492 0.011038 0.0031825 1 -0.018594 0.010416 -0.99977 255 0 0
-0.10692 0.011048 0.0068845 1 -0.4645 0.78453 -0.41079 255 0 0
-0.10718 0.011118 -8.3489e-05 1 -0.018585 0.01038 -0.99977 255 0 0
-0.10796 0.011088 0.0044475 1 0.023154 0.99968 0.010024 255 0 0
-0.10547 0.011028 0.0054345 1 -0.52306 0.72964 -0.44049 255 0 0
-0.10906 0.011188 -0.0032205 1 0.046788 -0.99884 -0.010999 255 0 0
-0.10575 0.0086574 -0.005202 1 -0.45216 -0.78454 -0.42432 255 0 0
-0.10479 0.010558 0.0078905 1 -0.018602 0.010417 -0.99977 255 0 0
-0.10513 0.0092874 0.0078835 1 -0.16854 -0.0060019 0.98568 255 0 0
-0.10921 0.0087174 0.0079535 1 0.018589 -0.010519 0.99977 255 0 0
-0.10628 0.011058 0.0039805 1 -0.01863 0.010411 -0.99977 255 0 0
-0.10575 0.011018 0.0066245 1 -0.16905 -0.006385 0.98559 255 0 0
-0.10677 0.011058 0.0056425 1 0.018456 -0.010428 0.99978 255 0 0
-0.10826 0.011188 -0.0042314 1 -0.018621 0.010438 -0.99977 255 0 0
-0.10642 0.011128 -0.0020507 1 -0.75401 -0.65656 0.019815 255 0 0
-0.10822 0.011078 0.0062945 1 -0.026594 0.049086 -0.99844 255 0 0
-0.1075 0.0099874 0.0079345 1 -0.018625 0.010421 -0.99977 255 0 0
-0.10716 0.010748 -0.0051541 1 0.046613 -0.99877 -0.016679 255 0 0
-0.106 0.0073774 0.0078795 1 -0.3245 0.7303 -0.60114 255 0 0
-0.10453 0.011038 0.0020195 1 0.035564 -0.99815 0.049282 255 0 0
-0.10678 0.0079374 -0.0051905 1 -0.018589 0.010439 -0.99977 255 0 0
-0.10905 0.011158 -5.3489e-05 1 0.7006 0.292 -0.65107 255 0 0
-0.10494 0.011108 -0.0035137 1 -0.16913 -0.0059877 0.98557 255 0 0
-0.10652 0.0088874 0.0079055 1 -0.16897 -0.0060036 0.9856 255 0 0
-0.10882 0.0075174 -0.0051569 1 -0.018585 0.010438 -0.99977 255 0 0
-0.1045 0.011108 -0.0046552 1 -0.78711 -0.58001 0.20987 255 0 0
-0.10594 0.010488 -0.0051795 1 0.48094 0.73505 -0.47792 255 0 0
-0.1046 0.011078 -0.0016521 1 0.47256 -0.38504 -0.79274 255 0 0
-0.10451 0.011068 -0.00037749 1 -0.018635 0.010396 -0.99977 255 0 0
-0.10786 0.011148 -0.0015891 1 0.47315 -0.38645 -0.7917 255 0 0
-0.10917 0.011088 0.0071575 1 0.39779 -0.77715 -0.48765 255 0 0
-0.1047 0.0080674 -0.0052279 1 0.054679 0.99846 0.0092036 255 0 0
-0.1083 0.011128 0.0013295 1 -0.018579 0.010413 -0.99977 255 0 0
-0.10919 0.011118 0.0049305 1 0.018536 -0.010593 0.99977 255 0 0
-0.10086 0.011018 -0.0039546 1 -0.82542 0.56317 -0.039012 255 0 0
-0.10339 0.010948 -0.0052222 1 -0.16935 -0.0064757 0.98553 255 0 0
-0.10069 0.010938 -0.0052726 1 0.04726 -0.99882 -0.011112 255 0 0
-0.10193 0.011018 -0.0012255 1 -0.018612 0.010385 -0.99977 255 0 0
-0.10202 0.011058 -0.0052315 1 0.04872 -0.99874 -0.011732 255 0 0
-0.10342 0.011008 0.0026315 1 0.081443 0.92846 -0.3624 255 0 0
-0.099583 0.0080174 0.0077675 1 -0.16913 -0.0058771 0.98558 255 0 0
-0.10059 0.0075074 -0.0053102 1 0.15902 -0.013264 0.98719 255 0 0
-0.099809 0.010948 0.0010435 1 -0.16922 -0.0062024 0.98556 255 0 0
-0.10105 0.010918 0.0071495 1 0.060856 0.9981 0.0095904 255 0 0
-0.10302 0.010968 0.0062245 1 -0.2106 0.90143 -0.37826 255 0 0
-0.10363 0.010998 0.0045575 1 0.45112 -0.62495 -0.63713 255 0 0
-0.09971 0.010988 -0.0025974 1 -0.16888 -0.0058674 0.98562 255 0 0
-0.099899 0.010818 0.0078025 1 -0.018592 0.010419 -0.99977 255 0 0
-0.10301 0.011048 -0.001873 1 -0.39406 -0.7841 -0.47948 255 0 0
-0.10205 0.0087674 -0.0052699 1 0.15498 0.016244 0.98778 255 0 0
-0.10388 0.010978 0.0071305 1 -0.1691 -0.0065962 0.98558 255 0 0
-0.10331 0.011038 -0.00056749 1 0.71296 0.25542 -0.65304 255 0 0
-0.10261 0.011008 0.0012495 1 0.030324 0.99917 0.027328 255 0 0
-0.10273 0.0081274 0.0078265 1 0.060753 0.9981 0.010152 255 0 0
-0.099454 0.010988 -0.0039175 1 -0.01862 0.010427 -0.99977 255 0 0
-0.10113 0.010938 0.0048945 1 0.018634 -0.010503 0.99977 255 0 0
-0.10161 0.010958 0.0036435 1 0.045746 -0.99889 -0.010917 255 0 0
-0.10222 0.011048 -0.0038439 1 -0.16933 -0.0063538 0.98554 255 0 0
-0.10331 0.011068 -0.0033444 1 0.018731 -0.010532 0.99977 255 0 0
-0.10133 0.010978 0.0016835 1 0.018792 -0.010291 0.99977 255 0 0
-0.10409 0.0073674 0.0078445 1 -0.1689 -0.0058352 0.98562 255 0 0
-0.10295 0.010558 0.0078565 1 0.30086 -0.73506 -0.60759 255 0 0
-0.10323 0.0078374 -0.0052577 1 0.3978 -0.77657 -0.48857 255 0 0
-0.10435 0.010998 0.0059635 1 0.021868 0.99972 0.0095004 255 0 0
-0.10245 0.010968 0.0050755 1 -0.018638 0.010399 -0.99977 255 0 0
-0.099678 0.010908 0.0047895 1 0.10209 0.93863 -0.32946 255 0 0
-0.10106 0.011018 -0.0027753 1 -0.018626 0.010385 -0.99977 255 0 0
-0.1022 0.0092174 0.0078285 1 0.50431 -0.44871 -0.73779 255 0 0
-0.10081 0.0095474 0.0078055 1 -0.017356 -0.065683 -0.99769 255 0 0
-0.099476 0.010888 0.0064035 1 -0.018623 0.010419 -0.99977 255 0 0
-0.10038 0.010938 0.0035145 1 0.047714 -0.9988 -0.010751 255 0 0
-0.10107 0.0095174 -0.0052803 1 0.046071 -0.99886 -0.012307 255 0 0
-0.1002 0.010978 -0.0012535 1 -0.27481 0.96118 0.024906 255 0 0
-0.10106 0.0081374 0.0077955 1 -0.16942 -0.0062893 0.98552 255 0 0
-0.10394 0.0087274 0.0078555 1 0.061296 0.99808 0.0090229 255 0 0
-0.10388 0.011038 0.00083851 1 -0.17613 -0.64232 0.74593 255 0 0
-0.10015 0.010948 0.0022235 1 0.022956 0.9997 0.0085262 255 0 0
-0.10162 0.010998 0.00017351 1 0.04714 -0.99881 -0.012387 255 0 0
-0.10305 0.0096174 -0.0052425 1 -0.018608 0.010456 -0.99977 255 0 0
-0.099939 0.0085174 -0.0053118 1 0.063275 0.96019 -0.27207 255 0 0
-0.10174 0.010938 0.0061825 1 0.062838 0.99798 0.0095052 255 0 0
-0.097772 0.010908 -0.0035605 1 0.054561 -0.76172 -0.64561 255 0 0
-0.095261 0.010648 0.0074505 1 -0.048883 -0.87948 -0.47343 255 0 0
-0.095343 0.010638 -0.0053752 1 0.018881 -0.010354 0.99977 255 0 0
-0.097583 0.0074074 0.0077235 1 -0.018596 0.0104 -0.99977 255 0 0
-0.09864 0.010778 0.0077785 1 -0.018645 0.010393 -0.99977 255 0 0
-0.096595 0.010518 -0.0053533 1 0.15334 -0.06531 0.98601 255 0 0
-0.097986 0.010868 0.0021885 1 -0.16876 -0.0063424 0.98564 255 0 0
-0.098206 0.010918 -0.0019389 1 0.48678 -0.49355 -0.72073 255 0 0
-0.0978 0.0094774 -0.0053416 1 -0.69244 -0.72146 0.005081 255 0 0
-0.098563 0.010918 0.00050651 1 0.048783 -0.99876 -0.010332 255 0 0
-0.094437 0.0086074 0.0076775 1 0.71248 0.2841 -0.6416 255 0 0
-0.098185 0.010908 -0.00072649 1 0.067989 0.99517 0.070756 255 0 0
-0.096595 0.0090474 -0.0053685 1 -0.14738 -0.98904 -0.0094525 255 0 0
-0.096307 0.010798 -0.0014568 1 0.018622 -0.010423 0.99977 255 0 0
-0.096766 0.010738 0.0075445 1 0.55594 -0.59428 -0.58118 255 0 0
-0.096409 0.0076874 -0.0053862 1 0.041459 -0.78335 -0.6202 255 0 0
-0.09605 0.010718 0.0045525 1 -0.16917 -0.0067342 0.98556 255 0 0
-0.098988 0.0094174 0.0077705 1 0.046157 -0.99884 -0.01354 255 0 0
-0.098057 0.010938 -0.0048142 1 -0.52407 0.72995 -0.43877 255 0 0
-0.095855 0.010728 0.0026035 1 0.4263 -0.62885 -0.65025 255 0 0
-0.098488 0.0075474 -0.0053489 1 0.35476 -0.71855 -0.5982 255 0 0
-0.096797 0.010758 0.0061245 1 -0.16907 -0.0058821 0.98559 255 0 0
-0.096531 0.0091774 0.0077225 1 -0.16887 -0.0063049 0.98562 255 0 0
-0.098295 0.010848 0.0062645 1 0.049194 -0.99873 -0.01131 255 0 0
-0.094992 0.010688 0.00087251 1 -0.018602 0.010418 -0.99977 255 0 0
-0.096373 0.010768 0.0014555 1 0.046455 -0.99886 -0.011031 255 0 0
-0.099346 0.010998 -0.0052026 1 0.023793 -0.15853 0.98707 255 0 0
-0.099094 0.0095474 -0.0053168 1 0.01842 -0.01062 0.99977 255 0 0
-0.097261 0.010838 0.00055251 1 0.77128 0.15256 -0.61794 255 0 0
-0.095799 0.010778 -0.0031515 1 0.39949 -0.7708 -0.49627 255 0 0
-0.098365 0.010878 0.0033255 1 -0.018605 0.010477 -0.99977 255 0 0
-0.097905 0.010838 0.0050365 1 0.048134 -0.99877 -0.012245 255 0 0
-0.094827 0.010698 -0.0011015 1 -0.14533 -0.98935 -0.008461 255 0 0
-0.095136 0.0086074 -0.0054003 1 0.076661 0.93064 -0.35782 255 0 0
-0.095389 0.010668 0.0055435 1 0.060764 0.99811 0.0088934 255 0 0
-0.097157 0.010808 0.0032675 1 -0.018602 0.010428 -0.99977 255 0 0
-0.098182 0.0084574 0.0077455 1 0.018617 -0.010404 0.99977 255 0 0
-0.094428 0.010608 0.0065155 1 -0.16887 -0.0060157 0.98562 255 0 0
-0.095721 0.010748 -0.00022549 1 0.048796 -0.99876 -0.010269 255 0 0
-0.095019 0.010668 0.0038975 1 0.082413 -0.47284 -0.87729 255 0 0
-0.093119 0.010588 -0.00046349 1 -0.37456 -0.77476 -0.50936 255 0 0
-0.092728 0.0097674 0.0076575 1 0.46818 -0.63633 -0.6131 255 0 0
-0.091845 0.010518 -0.0012545 1 -0.16893 -0.00625 0.98561 255 0 0
-0.093942 0.0073374 0.0076545 1 0.29403 -0.7433 -0.60088 255 0 0
-0.090824 0.0097874 0.0076225 1 0.71221 0.28442 -0.64176 255 0 0
-0.09192 0.010508 0.00022651 1 0.018546 -0.01065 0.99977 255 0 0
-0.093769 0.010608 0.0013325 1 -0.31894 -0.84314 -0.43289 255 0 0
-0.092273 0.0098774 -0.0054404 1 0.066387 0.77218 0.63192 255 0 0
-0.091546 0.0074974 -0.0054787 1 -0.16904 -0.0061675 0.98559 255 0 0
-0.093868 0.010578 0.0054655 1 0.49794 -0.62988 -0.59607 255 0 0
-0.089725 0.010298 0.0073655 1 0.01857 -0.010504 0.99977 255 0 0
-0.090934 0.0088874 -0.0054756 1 0.03181 -0.70764 -0.70586 255 0 0
-0.091664 0.010428 0.0066385 1 0.048131 -0.99875 -0.013403 255 0 0
-0.08996 0.010358 0.0024495 1 -0.031933 -0.99258 -0.11735 255 0 0
-0.094067 0.010618 0.0026325 1 -0.16928 -0.0062431 0.98555 255 0 0
-0.090697 0.010468 -0.0036786 1 -0.018617 0.010409 -0.99977 255 0 0
-0.090848 0.010408 0.0035945 1 -0.018596 0.010402 -0.99977 255 0 0
-0.089651 0.0096974 -0.005491 1 0.063347 0.99795 0.0087973 255 0 0
-0.090663 0.010478 -0.0054528 1 -0.16306 -0.0019972 0.98661 255 0 0
-0.093995 0.010528 0.0076895 1 0.045557 -0.9988 -0.01778 255 0 0
-0.090277 0.010348 0.0056695 1 0.29412 -0.74368 -0.60036 255 0 0
-0.091705 0.010478 0.0016895 1 -0.033229 0.0095639 -0.9994 255 0 0
-0.093008 0.010518 0.0064595 1 -0.089813 0.32477 0.94152 255 0 0
-0.093873 0.010478 -0.0054043 1 0.71426 0.23127 -0.66056 255 0 0
-0.092053 0.010488 0.0030155 1 -0.01862 0.010424 -0.99977 255 0 0
-0.090527 0.010418 0.00067451 1 0.46536 0.75527 -0.46153 255 0 0
-0.089822 0.0075874 0.0075805 1 -0.018637 0.010396 -0.99977 255 0 0
-0.093834 0.010668 -0.0040322 1 0.04782 -0.99882 -0.0086393 255 0 0
-0.093059 0.010608 -0.002938 1 -0.16878 -0.0064585 0.98563 255 0 0
-0.092692 0.0084574 0.0076435 1 0.15897 -0.013564 0.98719 255 0 0
-0.093884 0.010648 -0.0018982 1 -0.018567 0.010433 -0.99977 255 0 0
-0.0925 0.010588 -0.0045086 1 -0.018641 0.010405 -0.99977 255 0 0
-0.090104 0.0075374 -0.0055051 1 -0.011885 0.19057 -0.9816 255 0 0
-0.093201 0.0084774 -0.0054377 1 0.060099 0.99816 0.0080653 255 0 0
-0.091399 0.0079274 0.0076135 1 0.050033 -0.99869 -0.01106 255 0 0
-0.092333 0.010478 0.0054765 1 0.024859 0.99964 0.010292 255 0 0
-0.090656 0.010448 -0.0015834 1 -0.49131 -0.87062 0.02524 255 0 0
-0.091877 0.010538 -0.0030683 1 0.047405 -0.99882 -0.010937 255 0 0
-0.09326 0.010558 0.0036855 1 -0.018602 0.01043 -0.99977 255 0 0
-0.090179 0.0087674 0.0075995 1 0.018554 -0.010319 0.99977 255 0 0
-0.090015 0.010348 0.0044515 1 0.049366 -0.99872 -0.010945 255 0 0
-0.091278 0.010428 0.0047285 1 -0.018604 0.010428 -0.99977 255 0 0
-0.089033 0.010358 -0.003552 1 0.083122 0.92815 -0.3628 255 0 0
-0.08792 0.0074174 0.0075435 1 -0.2112 0.90132 -0.37819 255 0 0
-0.086297 0.010188 -0.0035381 1 -0.018599 0.010411 -0.99977 255 0 0
-0.084694 0.0080574 -0.0056004 1 0.14328 -0.034181 0.98909 255 0 0
-0.088663 0.010278 0.0025785 1 -0.018615 0.010432 -0.99977 255 0 0
-0.08458 0.0099974 0.0060195 1 0.061029 0.9981 0.0085629 255 0 0
-0.08539 0.010078 0.0019595 1 -0.018611 0.010425 -0.99977 255 0 0
-0.088621 0.0084374 0.0075675 1 -0.44745 -0.71849 -0.53251 255 0 0
-0.086126 0.010138 0.00093351 1 -0.16934 -0.0063828 0.98554 255 0 0
-0.087312 0.0094874 0.0075535 1 0.0076592 0.010615 0.99991 255 0 0
-0.086927 0.010178 0.0020625 1 -0.16849 -0.0061172 0.98568 255 0 0
-0.087831 0.010198 0.0055475 1 0.060345 0.99812 0.010466 255 0 0
-0.088406 0.010248 0.0038845 1 -0.16912 -0.0059798 0.98558 255 0 0
-0.085246 0.010058 0.0041745 1 0.46037 -0.45235 -0.76383 255 0 0
-0.088095 0.0095474 -0.0055215 1 -0.16926 -0.0065656 0.98555 255 0 0
-0.085224 0.010018 0.0074065 1 -0.69175 -0.72212 0.0051888 255 0 0
-0.08889 0.010308 0.00097051 1 0.018632 -0.010379 0.99977 255 0 0
-0.086223 0.010098 0.0058295 1 0.17341 -0.80788 -0.56325 255 0 0
-0.085361 0.010108 -0.0014918 1 -0.1687 -0.0064748 0.98565 255 0 0
-0.086869 0.010208 -0.0012175 1 0.018759 -0.010401 0.99977 255 0 0
-0.08725 0.010188 0.0034765 1 0.060812 0.99811 0.0088094 255 0 0
-0.088629 0.0078874 -0.0055289 1 -0.009559 -0.025947 -0.99962 255 0 0
-0.085335 0.010118 -0.005567 1 0.047738 -0.9988 -0.010974 255 0 0
-0.087936 0.010198 0.0068095 1 0.39766 -0.77677 -0.48837 255 0 0
-0.0861 0.0081374 0.0075175 1 0.46507 0.75669 -0.45949 255 0 0
-0.084903 0.010068 0.00034351 1 -0.018564 0.010366 -0.99977 255 0 0
-0.086359 0.010188 -0.0023499 1 0.01852 -0.010285 0.99978 255 0 0
-0.088342 0.010288 -0.00075849 1 0.014952 0.16009 -0.98699 255 0 0
-0.087039 0.010258 -0.0053521 1 -0.14654 -0.98917 -0.0080221 255 0 0
-0.087319 0.0084874 -0.005547 1 -0.018621 0.010365 -0.99977 255 0 0
-0.085989 0.0083374 -0.0055734 1 -0.01968 -0.0004555 -0.99981 255 0 0
-0.087653 0.010238 0.00061051 1 0.04238 -0.99783 -0.050473 255 0 0
-0.088692 0.010348 -0.0048078 1 -0.15953 -0.8087 0.56617 255 0 0
-0.084607 0.0080874 0.0074885 1 -0.16897 -0.0061601 0.9856 255 0 0
-0.088927 0.010338 -0.0023376 1 -0.29945 0.85021 -0.43299 255 0 0
-0.088935 0.010278 0.0050545 1 0.02523 0.99966 0.0070271 255 0 0
-0.087764 0.010268 -0.0020537 1 -0.16898 -0.0058664 0.9856 255 0 0
-0.087564 0.010268 -0.0033861 1 0.12139 0.71272 0.69087 255 0 0
-0.085383 0.010138 -0.0043446 1 -0.018605 0.010401 -0.99977 255 0 0
-0.08689 0.010148 0.0047535 1 -0.02625 0.0080477 -0.99962 255 0 0
-0.085933 0.010138 -0.00032449 1 0.018579 -0.010407 0.99977 255 0 0
-0.082147 0.0099074 -0.001278 1 -0.16893 -0.0058308 0.98561 255 0 0
-0.083278 0.010018 -0.0048906 1 0.018416 -0.010184 0.99978 255 0 0
-0.084366 0.010008 0.0027725 1 -0.018617 0.010404 -0.99977 255 0 0
-0.084358 0.010068 -0.0036308 1 0.0046263 0.68574 -0.72783 255 0 0
-0.07949 0.0097274 0.00076251 1 -0.018579 0.010383 -0.99977 255 0 0
-0.080996 0.0089574 0.0074305 1 -0.16906 -0.0061605 0.98559 255 0 0
-0.083886 0.0092974 0.0074885 1 0.021052 0.99972 0.010909 255 0 0
-0.081521 0.0098474 0.0010975 1 -0.018621 0.010377 -0.99977 255 0 0
-0.079801 0.0097574 -0.00076349 1 -0.018555 0.010372 -0.99977 255 0 0
-0.079536 0.0097574 -0.0020301 1 -0.169 -0.0063555 0.98559 255 0 0
-0.080937 0.0097674 0.0065225 1 -0.018632 0.010389 -0.99977 255 0 0
-0.082072 0.0098574 0.0039445 1 -0.018601 0.010422 -0.99977 255 0 0
-0.082801 0.0099574 -0.0023058 1 0.1587 -0.013791 0.98723 255 0 0
-0.08256 0.0099574 -0.0037234 1 -0.018606 0.010421 -0.99977 255 0 0
-0.080814 0.0097774 0.0040505 1 0.12237 -0.11254 0.98608 255 0 0
-0.083816 0.010008 -0.00071349 1 -0.018611 0.010459 -0.99977 255 0 0
-0.08433 0.010058 -0.0024261 1 -0.018587 0.010418 -0.99977 255 0 0
-0.082297 0.0096274 0.0074625 1 -0.018635 0.010408 -0.99977 255 0 0
-0.082343 0.0085674 -0.0056388 1 0.047998 -0.99876 -0.01346 255 0 0
-0.081315 0.0095374 -0.0056479 1 -0.018607 0.010442 -0.99977 255 0 0
-0.082251 0.0098574 0.0052705 1 0.018488 -0.010554 0.99977 255 0 0
-0.08329 0.0081874 0.0074655 1 0.049633 -0.9987 -0.011475 255 0 0
-0.08335 0.0099374 0.0039295 1 0.038355 -0.99909 0.018631 255 0 0
-0.0805 0.0082074 -0.0056769 1 -0.018641 0.010419 -0.99977 255 0 0
-0.082079 0.0078874 0.0074395 1 0.045715 0.94581 -0.3215 255 0 0
-0.081309 0.0098474 -0.00013549 1 0.06176 0.99806 0.0081757 255 0 0
-0.080569 0.0097774 0.0019495 1 -0.01865 0.010384 -0.99977 255 0 0
-0.0835 0.0099374 0.0053575 1 0.46622 0.75497 -0.46116 255 0 0
-0.083131 0.0099474 0.0016975 1 -0.018605 0.01038 -0.99977 255 0 0
-0.081461 0.0098974 -0.0043117 1 -0.018641 0.010404 -0.99977 255 0 0
-0.081198 0.0098674 -0.0025167 1 -0.14608 -0.98925 -0.0074166 255 0 0
-0.079867 0.0095574 -0.0056746 1 0.14771 -0.40965 0.9002 255 0 0
-0.083331 0.0099074 0.0065605 1 0.052403 -0.33879 -0.9394 255 0 0
-0.080157 0.0097274 0.0052685 1 -0.1692 -0.0061939 0.98556 255 0 0
-0.083464 0.0078674 -0.0056252 1 0.018436 -0.010618 0.99977 255 0 0
-0.079646 0.0086374 0.0074025 1 0.38672 -0.71003 -0.58847 255 0 0
-0.079726 0.0096874 0.0067915 1 -0.018621 0.010412 -0.99977 255 0 0
-0.083247 0.0099674 0.00042251 1 -0.01857 0.01042 -0.99977 255 0 0
-0.079529 0.0097074 0.0030145 1 0.047914 -0.99878 -0.012234 255 0 0
-0.082135 0.0098774 0.0025395 1 0.7316 0.12731 -0.66974 255 0 0
-0.080366 0.0098274 -0.0037566 1 0.018537 -0.010442 0.99977 255 0 0
-0.084274 0.0095774 -0.0055924 1 -0.017688 0.015135 -0.99973 255 0 0
-0.077512 0.0096474 -0.0042497 1 0.024943 -0.059771 -0.9979 255 0 0
-0.078439 0.0095574 -0.0057012 1 -0.16894 -0.0063159 0.98561 255 0 0
-0.075986 0.0095074 0.00099351 1 0.16253 0.0093434 0.98666 255 0 0
-0.078273 0.0096574 0.00023851 1 0.022086 0.9997 0.010582 255 0 0
-0.077426 0.0095674 0.0045635 1 0.018666 -0.010411 0.99977 255 0 0
-0.077873 0.0096474 -0.0015176 1 -0.018619 0.010425 -0.99977 255 0 0
-0.078146 0.0096174 0.0029505 1 -0.16916 -0.0060748 0.98557 255 0 0
-0.076193 0.0089874 -0.0057489 1 -0.57192 -0.56958 -0.59032 255 0 0
-0.075514 0.0082374 0.0073215 1 -0.018614 0.010419 -0.99977 255 0 0
-0.079199 0.0097474 -0.0032198 1 0.061752 0.99805 0.0096182 255 0 0
-0.075842 0.0095474 -0.0046082 1 0.15915 -0.013148 0.98717 255 0 0
-0.076711 0.0095874 -0.00304 1 -0.0094204 -0.0076172 -0.99993 255 0 0
-0.077965 0.0096674 -0.0028281 1 -0.16912 -0.0061357 0.98558 255 0 0
-0.075047 0.0094774 -0.0019615 1 -0.013587 -0.030608 0.99944 255 0 0
-0.078155 0.0081074 -0.0057216 1 -0.018586 0.010481 -0.99977 255 0 0
-0.077045 0.0094774 0.0073625 1 0.024901 -0.10739 0.99391 255 0 0
-0.076679 0.0073574 0.0073335 1 -0.018643 0.010414 -0.99977 255 0 0
-0.076583 0.0094974 0.0060095 1 0.060708 0.99812 0.0084798 255 0 0
-0.074979 0.0094574 -0.00054649 1 0.47226 -0.38647 -0.79222 255 0 0
-0.078244 0.0091274 0.0073815 1 0.38356 0.46978 -0.79511 255 0 0
-0.078058 0.0095874 0.0057885 1 -0.16875 -0.0060279 0.98564 255 0 0
-0.078813 0.0096774 0.0018925 1 -0.019902 0.012745 -0.99972 255 0 0
-0.075219 0.0094374 0.0034555 1 -0.16908 -0.0061801 0.98558 255 0 0
-0.074569 0.0093774 0.0050935 1 -0.018619 0.010388 -0.99977 255 0 0
-0.074633 0.0093674 0.0071865 1 0.01847 -0.010774 0.99977 255 0 0
-0.076359 0.0095574 -0.0018306 1 0.047899 -0.99881 -0.009432 255 0 0
-0.076564 0.0095174 0.0034595 1 -0.16902 -0.0057054 0.9856 255 0 0
-0.074896 0.0094274 0.0017845 1 0.56569 -0.45951 -0.68472 255 0 0
-0.077653 0.0096074 0.0014505 1 0.061089 0.99808 0.010121 255 0 0
-0.075389 0.0094174 0.0060815 1 0.046462 -0.99875 -0.018442 255 0 0
-0.074922 0.0079974 -0.005783 1 -0.018622 0.010376 -0.99977 255 0 0
-0.077198 0.0096374 -0.0054716 1 0.50161 0.15763 -0.85061 255 0 0
-0.076011 0.0094774 0.0047195 1 -0.018613 0.010396 -0.99977 255 0 0
-0.079232 0.0096774 0.0044665 1 -0.018626 0.010418 -0.99977 255 0 0
-0.074639 0.0094774 -0.0045586 1 -0.16919 -0.0058915 0.98557 255 0 0
-0.076282 0.0095174 0.0021455 1 0.42476 -0.57374 -0.70028 255 0 0
-0.076278 0.0095374 -0.00040549 1 -0.018601 0.010397 -0.99977 255 0 0
-0.074991 0.0094874 -0.0032591 1 -0.0093234 0.19822 -0.98011 255 0 0
-0.079167 0.0097574 -0.0044505 1 -0.16907 -0.0061656 0.98558 255 0 0
-0.070715 0.0092274 -0.0039935 1 -0.018597 0.010425 -0.99977 255 0 0
-0.070725 0.0091874 0.00016551 1 -0.01858 0.010423 -0.99977 255 0 0
-0.069587 0.0080774 0.0072095 1 -0.16897 -0.0058701 0.9856 255 0 0
-0.073248 0.0092874 0.0056965 1 -0.16904 -0.0063531 0.98559 255 0 0
-0.072155 0.0092774 -0.00059349 1 0.075727 0.99379 0.081473 255 0 0
-0.072771 0.0087174 -0.0058154 1 0.056546 -0.88675 -0.45879 255 0 0
-0.073573 0.0093874 -0.0025723 1 0.077737 -0.97601 0.20339 255 0 0
-0.069878 0.0091074 0.0033055 1 0.048002 -0.9988 -0.00931 255 0 0
-0.070708 0.0091374 0.0054565 1 -0.9996 0.02137 0.018742 255 0 0
-0.070547 0.0091974 -0.0024835 1 0.060416 0.99813 0.0096186 255 0 0
-0.072535 0.0092874 0.00097751 1 -0.018628 0.010396 -0.99977 255 0 0
-0.07239 0.0092574 0.0041715 1 0.021441 0.99973 0.0092322 255 0 0
-0.073462 0.0075174 -0.0058151 1 -0.018587 0.010431 -0.99977 255 0 0
-0.071372 0.0091674 0.0070525 1 -0.35544 0.93456 0.0158 255 0 0
-0.069757 0.0091374 -0.0012235 1 -0.62286 0.25252 -0.74046 255 0 0
-0.072337 0.0084174 0.0072645 1 0.018667 -0.010303 0.99977 255 0 0
-0.073891 0.0093474 0.0039605 1 0.062772 0.99797 0.010403 255 0 0
-0.073436 0.0076374 0.0072765 1 -0.018609 0.010396 -0.99977 255 0 0
-0.071731 0.0092674 -0.0023592 1 -0.16901 -0.0061955 0.98559 255 0 0
-0.071553 0.0092174 0.0018335 1 -0.018587 0.010435 -0.99977 255 0 0
-0.070353 0.0091474 -0.005856 1 0.64907 0.48346 -0.58734 255 0 0
-0.071589 0.0085174 -0.0058395 1 0.049413 -0.99874 -0.009043 255 0 0
-0.073169 0.0093174 0.0026125 1 0.018648 -0.010382 0.99977 255 0 0
-0.072097 0.0093074 -0.0041065 1 0.027762 -0.89269 -0.44982 255 0 0
-0.074325 0.0091974 -0.0057815 1 -0.018601 0.010432 -0.99977 255 0 0
-0.073829 0.0093974 -0.0012525 1 -0.16905 -0.0063063 0.98559 255 0 0
-0.071947 0.0092174 0.0055105 1 -0.16881 -0.0064528 0.98563 255 0 0
-0.073311 0.0093874 -0.0046278 1 0.022863 0.99967 -0.011945 255 0 0
-0.070211 0.0091374 0.0016675 1 0.047664 -0.9988 -0.01112 255 0 0
-0.069852 0.0090874 0.0045705 1 -0.16862 -0.0064058 0.98566 255 0 0
-0.071093 0.0091774 0.0035635 1 -0.017528 0.99959 0.022734 255 0 0
-0.074313 0.0094074 0.00073851 1 -0.018598 0.01043 -0.99977 255 0 0
-0.073247 0.0092774 0.0072145 1 0.033802 -0.91294 -0.40669 255 0 0
-0.070154 0.0090874 0.0068085 1 0.085014 0.9274 -0.36429 255 0 0
-0.070951 0.0092074 -0.0010885 1 -0.018592 0.010405 -0.99977 255 0 0
-0.068858 0.0090874 -0.0021146 1 -0.018619 0.01042 -0.99977 255 0 0
-0.066598 0.0088674 0.0069905 1 0.18718 -0.34257 0.92066 255 0 0
-0.065786 0.0088374 0.0042445 1 0.027621 0.99957 0.010322 255 0 0
-0.066363 0.0089274 -0.0012709 1 -0.018621 0.010399 -0.99977 255 0 0
-0.068367 0.0089974 0.0047685 1 0.13957 -0.10225 0.98492 255 0 0
-0.067861 0.0089774 0.0032785 1 0.16573 -0.059221 0.98439 255 0 0
-0.067844 0.0090374 -0.003011 1 -0.018676 0.010407 -0.99977 255 0 0
-0.069276 0.0091374 -0.0047822 1 -0.018589 0.010431 -0.99977 255 0 0
-0.065751 0.0089275 -0.0051646 1 0.59975 0.58769 -0.54307 255 0 0
-0.067647 0.0089474 0.0057915 1 0.1387 0.10042 0.98523 255 0 0
-0.068119 0.0083174 0.0071845 1 0.45627 -0.69576 -0.55474 255 0 0
-0.067596 0.0090475 -0.0053623 1 -0.018601 0.010462 -0.99977 255 0 0
-0.066974 0.0089875 -0.0040056 1 -0.018609 0.010414 -0.99977 255 0 0
-0.067674 0.0089874 0.00086851 1 0.084041 0.92777 -0.36356 255 0 0
-0.068839 0.0090174 -0.0058856 1 -0.026656 0.16325 -0.98622 255 0 0
-0.065345 0.0087874 0.0070255 1 -0.018672 0.01039 -0.99977 255 0 0
-0.069228 0.0090874 0.00060251 1 -0.16893 -0.0063587 0.98561 255 0 0
-0.064531 0.0088175 -0.0011905 1 -0.018594 0.010443 -0.99977 255 0 0
-0.064836 0.0088475 -0.0029333 1 0.020582 -0.54427 0.83866 255 0 0
-0.066831 0.0075574 0.0071525 1 -0.018602 0.010434 -0.99977 255 0 0
-0.069333 0.0091374 -0.0033943 1 -0.16935 -0.0062746 0.98554 255 0 0
-0.065688 0.0088474 0.0024325 1 0.15032 -0.6506 0.74439 255 0 0
-0.06702 0.0089374 0.0024185 1 0.01854 -0.010302 0.99978 255 0 0
-0.068932 0.0090574 0.0019205 1 -0.16901 -0.0061743 0.98559 255 0 0
-0.065507 0.0076975 -0.0059613 1 0.042057 0.19169 -0.98055 255 0 0
-0.067191 0.0078475 -0.0059285 1 -0.018608 0.010454 -0.99977 255 0 0
-0.064704 0.0088575 -0.0044436 1 -0.018656 0.010403 -0.99977 255 0 0
-0.066314 0.0089375 -0.0024702 1 0.047182 -0.99878 -0.014817 255 0 0
-0.068911 0.0090174 0.0060135 1 -0.16891 -0.0064676 0.98561 255 0 0
-0.068392 0.0090474 -0.00052049 1 0.097144 -0.97778 0.18577 255 0 0
-0.065882 0.0088274 0.0058475 1 -0.018602 0.010408 -0.99977 255 0 0
-0.067135 0.0089174 0.0047165 1 0.084708 0.92806 -0.36267 255 0 0
-0.064764 0.0087874 0.0034305 1 -0.16903 -0.0063097 0.98559 255 0 0
-0.065691 0.0088674 0.00044351 1 -0.018611 0.010453 -0.99977 255 0 0
-0.067015 0.0089574 -0.00025349 1 0.29665 -0.74101 -0.60241 255 0 0
-0.067563 0.0090074 -0.0015551 1 -0.16911 -0.0064261 0.98558 255 0 0
-0.066499 0.0089074 0.0013435 1 0.15917 -0.013389 0.98716 255 0 0
-0.062981 0.0086374 0.0069555 1 -0.16877 -0.0058564 0.98564 255 0 0
-0.061264 0.0085675 0.0032065 1 0.018585 -0.010345 0.99977 255 0 0
-0.062694 0.0087175 -0.003344 1 0.018538 -0.010437 0.99977 255 0 0
-0.064353 0.0087875 0.00079651 1 0.083636 0.9279 -0.36333 255 0 0
-0.061 0.0086075 -0.0024431 1 0.1113 -0.91193 0.39497 255 0 0
-0.059523 0.0084275 0.0069075 1 -0.018594 0.010428 -0.99977 255 0 0
-0.0627 0.0086875 -0.0060033 1 0.050736 -0.99865 -0.011054 255 0 0
-0.05984 0.0084875 -0.0060586 1 -0.16928 -0.0064338 0.98555 255 0 0
-0.06425 0.0080075 -0.0059815 1 -0.16927 -0.0058994 0.98555 255 0 0
-0.062339 0.0086475 0.0022325 1 0.53885 -0.54409 -0.64312 255 0 0
-0.06152 0.0085574 0.0065445 1 -0.01857 0.010388 -0.99977 255 0 0
-0.061783 0.0086475 -0.0012355 1 0.049776 -0.92501 -0.37668 255 0 0
-0.062748 0.0086374 0.0054465 1 0.014261 0.99981 -0.01295 255 0 0
-0.064144 0.0087574 0.0022435 1 -0.16708 -0.033767 0.98537 255 0 0
-0.061067 0.0086275 -0.0040202 1 -0.16925 -0.0065804 0.98555 255 0 0
-0.063069 0.0087075 0.00019151 1 0.018687 -0.010439 0.99977 255 0 0
-0.063708 0.0087775 -0.0023169 1 -0.16875 -0.0059246 0.98564 255 0 0
-0.062149 0.0075575 -0.0060253 1 -0.018604 0.010378 -0.99977 255 0 0
-0.064077 0.0087274 0.0049965 1 0.018564 -0.010447 0.99977 255 0 0
-0.061117 0.0086475 -0.00594 1 -0.16933 -0.0063946 0.98554 255 0 0
-0.061463 0.0085975 0.0012225 1 -0.018658 0.010398 -0.99977 255 0 0
-0.061294 0.0074774 0.0070485 1 -0.16936 -0.0061307 0.98553 255 0 0
-0.064286 0.0081174 0.0071105 1 0.046281 -0.99875 -0.019111 255 0 0
-0.060648 0.0085075 0.0053775 1 0.023393 0.99968 0.0092709 255 0 0
-0.059515 0.0084875 0.00079551 1 0.061486 0.99807 0.0090644 255 0 0
-0.063369 0.0086974 0.0033345 1 0.11219 -0.97203 0.20632 255 0 0
-0.060004 0.0073275 0.0070235 1 -0.47253 -0.7821 -0.40624 255 0 0
-0.062857 0.0087375 -0.0047575 1 0.018559 -0.0103 0.99977 255 0 0
-0.05966 0.0085275 -0.0030621 1 -0.16949 -0.0061403 0.98551 255 0 0
-0.060611 0.0085375 0.0021915 1 0.15898 -0.013326 0.98719 255 0 0
-0.060289 0.0084975 0.0040325 1 -0.01857 0.010429 -0.99977 255 0 0
-0.060939 0.0085775 0.00012151 1 0.066979 0.99218 0.1053 255 0 0
-0.061942 0.0085975 0.0042585 1 0.011955 0.91828 -0.39575 255 0 0
-0.063277 0.0087375 -0.0010215 1 -0.018625 0.01044 -0.99977 255 0 0
-0.063294 0.0087075 0.0013925 1 -0.16917 -0.0062564 0.98557 255 0 0
-0.059219 0.0084875 -0.0017995 1 -0.16908 -0.0064261 0.98558 255 0 0
-0.056086 0.0082175 0.0062645 1 -0.1691 -0.0062379 0.98558 255 0 0
-0.058986 0.0084975 -0.0043346 1 -0.16904 -0.0062119 0.98559 255 0 0
-0.058233 0.0073275 -0.0061006 1 -0.16871 -0.0062103 0.98565 255 0 0
-0.056144 0.0082375 0.0047805 1 -0.21664 0.91367 -0.34391 255 0 0
-0.05615 0.0083075 -0.0030156 1 0.024956 -0.55642 -0.83052 255 0 0
-0.057465 0.0083775 -0.00156 1 0 0 0 255 0 0
-0.05713 0.0082075 -0.006112 1 -0.19903 -0.020093 0.97979 255 0 0
-0.057646 0.0077175 0.0069835 1 -0.084049 -0.89161 -0.44494 255 0 0
-0.057632 0.0084075 -0.0032062 1 0.018719 -0.010562 0.99977 255 0 0
-0.05759 0.0083275 0.0045645 1 0.046619 -0.99886 -0.0098267 255 0 0
-0.055717 0.0082975 -0.0052028 1 -0.018639 0.01041 -0.99977 255 0 0
-0.057445 0.0083475 0.0018565 1 -0.018608 0.010391 -0.99977 255 0 0
-0.054766 0.0081375 -0.0061567 1 -0.018588 0.010431 -0.99977 255 0 0
-0.055099 0.0082175 0.00023451 1 0.046915 0.9246 -0.37805 255 0 0
-0.05925 0.0084575 0.0020145 1 0.59688 0.59244 -0.54106 255 0 0
-0.058142 0.0083975 0.00028951 1 -0.16901 -0.0064035 0.98559 255 0 0
-0.057394 0.0083975 -0.0044053 1 -0.018641 0.010405 -0.99977 255 0 0
-0.057897 0.0083575 0.0030155 1 0.50417 -0.63169 -0.58889 255 0 0
-0.055128 0.0081775 0.0038935 1 -0.018627 0.010422 -0.99977 255 0 0
-0.056079 0.0082575 0.0015195 1 0.021828 0.99972 0.0089133 255 0 0
-0.054585 0.0082275 -0.0046938 1 0.018739 -0.010465 0.99977 255 0 0
-0.056425 0.0082675 0.0031185 1 -0.1689 -0.0060261 0.98561 255 0 0
-0.05508 0.0081675 0.0053675 1 -0.018589 0.010404 -0.99977 255 0 0
-0.059177 0.0084775 -0.00041249 1 -0.068664 -0.46195 -0.88425 255 0 0
-0.056479 0.0082975 1.0511e-05 1 0.018522 -0.010429 0.99977 255 0 0
-0.058062 0.0083475 0.0059805 1 0.048941 -0.99875 -0.0097855 255 0 0
-0.059297 0.0084475 0.0033705 1 -0.018569 0.010378 -0.99977 255 0 0
-0.058224 0.0084575 -0.0055411 1 -0.038502 -0.19545 0.97996 255 0 0
-0.059165 0.0084175 0.0053235 1 0.064703 0.77193 -0.6324 255 0 0
-0.055062 0.0082275 -0.001305 1 -0.21098 0.90156 -0.37774 255 0 0
-0.052607 0.0080975 -0.0045694 1 0.14518 -0.068826 0.98701 255 0 0
-0.051207 0.0079975 -0.0027183 1 0.17473 -0.043763 0.98364 255 0 0
-0.052807 0.0080175 0.0057995 1 -0.16882 -0.0062349 0.98563 255 0 0
-0.049557 0.0078675 -1.9489e-05 1 -0.16912 -0.0061102 0.98558 255 0 0
-0.052017 0.0072975 -0.0062167 1 0.067647 0.96015 0.27119 255 0 0
-0.051667 0.0079575 0.0052095 1 -0.012494 -0.0032354 -0.99992 255 0 0
-0.050927 0.0079175 0.0040955 1 -0.018585 0.010419 -0.99977 255 0 0
-0.054306 0.0081875 -0.0025393 1 0.048399 -0.99874 -0.013411 255 0 0
-0.050897 0.0079375 0.0015255 1 0.018671 -0.01046 0.99977 255 0 0
-0.054228 0.0081475 0.0012785 1 -0.018623 0.010403 -0.99977 255 0 0
-0.051317 0.0079775 -0.00024749 1 0.035046 0.81439 -0.57925 255 0 0
-0.049957 0.0078475 0.0049475 1 -0.018594 0.01041 -0.99977 255 0 0
-0.053745 0.0081375 -0.0011575 1 -0.018589 0.010428 -0.99977 255 0 0
-0.052407 0.0080675 -0.0021529 1 -0.49203 0.78016 -0.38633 255 0 0
-0.050117 0.0079275 -0.0019876 1 0.13942 -0.10182 0.98498 255 0 0
-0.054152 0.0081275 0.0028045 1 -0.015944 0.078303 -0.9968 255 0 0
-0.053077 0.0081175 -0.0032906 1 0.46654 0.75548 -0.45998 255 0 0
-0.049527 0.0078475 0.0019885 1 0.061204 0.99809 0.0081156 255 0 0
-0.053871 0.0080975 0.0049765 1 -0.018627 0.010442 -0.99977 255 0 0
-0.052727 0.0080475 0.0020315 1 -0.16906 -0.0058946 0.98559 255 0 0
-0.052627 0.0080175 0.0043045 1 0.018691 -0.010286 0.99977 255 0 0
-0.052447 0.0080575 -0.00087949 1 0.70815 0.25759 -0.65739 255 0 0
-0.050557 0.0079775 -0.0048246 1 -0.018604 0.010445 -0.99977 255 0 0
-0.052087 0.0080175 0.00079451 1 0.070037 0.9271 -0.36821 255 0 0
-0.053754 0.0081275 0.00017251 1 -0.16903 -0.006073 0.98559 255 0 0
-0.050087 0.0079375 -0.0037035 1 0.19081 -0.79111 -0.58115 255 0 0
-0.051817 0.0079475 0.0067665 1 -0.16925 -0.0064656 0.98555 255 0 0
-0.054319 0.0081075 0.0069035 1 0.024396 0.10274 -0.99441 255 0 0
-0.050437 0.0078675 0.0063085 1 0.018711 -0.010287 0.99977 255 0 0
-0.053197 0.0081475 -0.0057759 1 -0.01859 0.01043 -0.99977 255 0 0
-0.051537 0.0079675 0.0029725 1 -0.018585 0.010415 -0.99977 255 0 0
-0.051037 0.0080175 -0.0060807 1 0.063554 0.99794 0.0089778 255 0 0
-0.048387 0.0077975 0.00036551 1 0.39805 -0.7769 -0.48784 255 0 0
-0.046357 0.0076475 0.0029485 1 -0.23355 0.89458 -0.38103 255 0 0
-0.047177 0.0077675 -0.0047704 1 -0.018636 0.010437 -0.99977 255 0 0
-0.046987 0.0077175 -0.00071749 1 -0.16917 -0.005938 0.98557 255 0 0
-0.045477 0.0075675 0.0055215 1 -0.018604 0.010409 -0.99977 255 0 0
-0.048237 0.0077675 0.0021575 1 -0.16917 -0.0064586 0.98557 255 0 0
-0.045187 0.0075975 0.00045151 1 -0.16889 -0.0063683 0.98561 255 0 0
-0.048197 0.0077375 0.0052585 1 -0.17909 0.98298 -0.040881 255 0 0
-0.048697 0.0078675 -0.0052397 1 0.074617 -0.70379 0.70648 255 0 0
-0.048737 0.0078275 -0.00096349 1 0.48005 0.74307 -0.46626 255 0 0
-0.047917 0.0077375 0.0036455 1 -0.18657 0.9025 -0.38818 255 0 0
-0.047627 0.0077775 -0.0033556 1 0.018628 -0.010452 0.99977 255 0 0
-0.046357 0.0076275 0.0045165 1 0.049243 -0.9987 -0.012838 255 0 0
-0.045617 0.0076775 -0.0052872 1 0.028186 0.93601 0.35084 255 0 0
-0.046357 0.0072675 -0.0063223 1 -0.16936 -0.0052651 0.98554 255 0 0
-0.046857 0.0077275 -0.0024066 1 0.55104 -0.5265 -0.64742 255 0 0
-0.047077 0.0077075 0.00099951 1 0.37945 -0.69666 -0.60884 255 0 0
-0.049277 0.0078175 0.0033135 1 0.018743 -0.01039 0.99977 255 0 0
-0.048067 0.0076575 -0.0062863 1 0.22661 -0.35088 0.90859 255 0 0
-0.045827 0.0076675 -0.0036828 1 0.048521 -0.99875 -0.011612 255 0 0
-0.046907 0.0076475 0.0058495 1 -0.36088 -0.7792 -0.51245 255 0 0
-0.045087 0.0075775 0.0021125 1 0.018695 -0.010368 0.99977 255 0 0
-0.045387 0.0076275 -0.0022186 1 -0.16901 -0.0062268 0.98559 255 0 0
-0.048707 0.0078475 -0.0028017 1 -0.16914 -0.0061828 0.98557 255 0 0
-0.048997 0.0077775 0.0062405 1 0.01848 -0.010625 0.99977 255 0 0
-0.045407 0.0075775 0.0036805 1 -0.018611 0.010403 -0.99977 255 0 0
-0.045297 0.0076175 -0.0010245 1 -0.16945 -0.0060744 0.98552 255 0 0
-0.047967 0.0074375 0.0068005 1 0.021139 0.99972 0.010337 255 0 0
-0.042177 0.0073775 0.0036535 1 0.042334 0.36747 -0.92907 255 0 0
-0.044057 0.0074875 0.0039085 1 -0.46262 0.84256 -0.27582 255 0 0
-0.040347 0.0072675 0.0037335 1 0.085092 0.92785 -0.36312 255 0 0
-0.044107 0.0075375 -0.0010775 1 -0.16911 -0.0062844 0.98558 255 0 0
-0.044277 0.0075775 -0.0041246 1 0.047213 -0.99884 -0.0096542 255 0 0
-0.043537 0.0074475 0.0057235 1 0.048878 -0.99872 -0.012805 255 0 0
-0.044357 0.0074775 0.0067335 1 -0.01862 0.010433 -0.99977 255 0 0
-0.040107 0.0073375 -0.0058213 1 -0.018591 0.010433 -0.99977 255 0 0
-0.041337 0.0073075 0.0055265 1 0.061598 0.99805 0.010043 255 0 0
-0.041987 0.0074275 -0.0030954 1 -0.018632 0.010413 -0.99977 255 0 0
-0.041677 0.0074275 -0.0046081 1 0.65351 -0.35472 -0.66866 255 0 0
-0.041497 0.0074275 -0.0059768 1 -0.018639 0.010423 -0.99977 255 0 0
-0.040227 0.0073075 -0.0018978 1 -0.018608 0.010431 -0.99977 255 0 0
-0.040507 0.0073375 -0.0034494 1 -0.018626 0.010416 -0.99977 255 0 0
-0.042417 0.0074075 0.0024485 1 -0.16887 -0.0059638 0.98562 255 0 0
-0.041877 0.0073875 0.00046951 1 -0.38335 -0.77748 -0.49856 255 0 0
-0.043877 0.0074975 0.0017235 1 0.022533 0.99969 0.010431 255 0 0
-0.042937 0.0075075 -0.0050863 1 -0.01863 0.010426 -0.99977 255 0 0
-0.041157 0.0073275 0.0023195 1 -0.018594 0.010427 -0.99977 255 0 0
-0.043537 0.0074975 0.00022151 1 0.098198 -0.96062 0.25992 255 0 0
-0.042257 0.0074275 -0.0015057 1 0.074775 -0.074339 0.99443 255 0 0
-0.043497 0.0075175 -0.0028761 1 -0.018623 0.010458 -0.99977 255 0 0
-0.039897 0.0072475 0.0018565 1 0.081098 -0.99573 0.044067 255 0 0
-0.040637 0.0073075 0.00032251 1 0.74599 0.30798 -0.59046 255 0 0
-0.039427 0.0072875 -0.0048376 1 -0.01861 0.010446 -0.99977 255 0 0
-0.044277 0.0075875 -0.0054141 1 -0.018615 0.010415 -0.99977 255 0 0
-0.042377 0.0073775 0.0048635 1 0.39708 -0.77694 -0.48856 255 0 0
-0.039217 0.0072575 -0.0035295 1 0.023319 -0.062443 0.99778 255 0 0
0.035143 0.0074975 -0.00086448 1 0.014109 -0.017312 0.99975 255 0 0
0.040583 0.0091875 -0.005317 1 0.15243 -0.050927 0.987 255 0 0
0.038923 0.010447 -0.0012555 1 -0.018627 0.010427 -0.99977 255 0 0
0.038003 0.0086675 -0.0030844 1 -0.21521 0.64574 -0.7326 255 0 0
0.038313 0.0099975 -0.00027748 1 -0.16916 -0.006311 0.98557 255 0 0
0.040233 0.0073875 -0.0078862 1 0.040626 0.7407 0.67061 255 0 0
0.040203 0.010067 -0.0034145 1 0.045207 -0.9988 -0.01878 255 0 0
0.039733 0.0076675 -0.0068325 1 -0.018601 0.010424 -0.99977 255 0 0
0.039033 0.0086275 -0.0044141 1 -0.018676 0.01039 -0.99977 255 0 0
0.036273 0.0076975 -0.0021802 1 -0.52182 0.73071 -0.4402 255 0 0
0.040553 0.011317 0.00011553 1 -0.65069 0.66134 0.37314 255 0 0
0.037323 0.0087175 -0.0020012 1 -0.018611 0.01042 -0.99977 255 0 0
0.039863 0.011247 -0.00098047 1 0.083421 0.92813 -0.36279 255 0 0
0.037663 0.0076975 -0.0042354 1 -0.35371 0.79456 -0.49353 255 0 0
0.038963 0.011057 -0.00015947 1 0.021972 0.99972 0.0090368 255 0 0
0.038583 0.0077875 -0.0052589 1 0.018591 -0.010486 0.99977 255 0 0
0.039733 0.010427 -0.0022575 1 0.74714 -0.076704 -0.66023 255 0 0
0.037503 0.0074275 -0.00043248 1 0.061875 0.74699 0.66195 255 0 0
0.039593 0.0082675 -0.0056661 1 -0.39047 -0.57673 0.71758 255 0 0
0.036483 0.0087575 -0.00059848 1 -0.050542 -0.86718 -0.49543 255 0 0
0.037953 0.0087675 -0.00034748 1 -0.19705 0.52421 -0.82847 255 0 0
0.039983 0.0081875 -2.4774e-06 1 0.091312 0.93218 -0.3503 255 0 0
0.038993 0.0074575 -0.00017648 1 0.046262 -0.99887 -0.011244 255 0 0
0.038653 0.0096975 -0.0021889 1 0.047359 -0.99882 -0.010366 255 0 0
0.039443 0.0092875 -8.8475e-05 1 -0.018565 0.010392 -0.99977 255 0 0
0.042493 0.011237 -0.0041908 1 0.018516 -0.010274 0.99978 255 0 0
0.045483 0.012207 -0.0061277 1 -0.018621 0.010431 -0.99977 255 0 0
0.041583 0.010087 0.00028452 1 0.060562 0.99813 0.0077477 255 0 0
0.041873 0.011777 -0.0024626 1 -0.018611 0.010408 -0.99977 255 0 0
0.040933 0.0099775 -0.004419 1 -0.018607 0.010402 -0.99977 255 0 0
0.045343 0.011497 -0.0071443 1 0.40339 -0.60837 -0.68349 255 0 0
0.044793 0.0077175 -0.0080145 1 0.018775 -0.01051 0.99977 255 0 0
0.041463 0.0075775 -0.0079538 1 0.45212 -0.56615 -0.68925 255 0 0
0.042463 0.0089175 0.00042752 1 0.29546 -0.74363 -0.59976 255 0 0
0.040783 0.011287 -0.0020522 1 -0.018567 0.010428 -0.99977 255 0 0
0.041903 0.0094875 -0.0063798 1 0.084661 0.928 -0.36283 255 0 0
0.044393 0.010317 -0.0079785 1 0.047935 -0.99881 -0.0089577 255 0 0
0.043803 0.0077375 0.00065152 1 -0.15153 0.98836 0.013225 255 0 0
0.043893 0.010797 -0.0065736 1 0.0495 -0.99872 -0.01014 255 0 0
0.044993 0.010557 0.00087153 1 0.1923 -0.79077 -0.58113 255 0 0
0.042323 0.011127 0.00041853 1 0.018694 -0.010415 0.99977 255 0 0
0.041343 0.010887 -0.0033978 1 0.061656 0.99806 0.0090683 255 0 0
0.043773 0.0086875 -0.0079853 1 -0.16888 -0.0060964 0.98562 255 0 0
0.045053 0.0092775 0.00087452 1 0.47559 0.58414 -0.65772 255 0 0
0.042023 0.010207 -0.0053339 1 0.59933 0.58778 -0.54343 255 0 0
0.041013 0.0073275 0.00016852 1 0.44029 -0.72371 -0.53141 255 0 0
0.044093 0.011577 0.00072353 1 -0.018629 0.010462 -0.99977 255 0 0
0.042963 0.0098075 -0.007113 1 0.19269 -0.7906 -0.58122 255 0 0
0.041263 0.0086075 0.00021952 1 0.012711 0.7783 -0.62777 255 0 0
0.043713 0.0089975 0.00064252 1 0.018561 -0.010561 0.99977 255 0 0
0.040723 0.0085375 -0.0065603 1 0.062293 0.99801 0.0093639 255 0 0
0.043673 0.011497 -0.0051598 1 -0.16882 -0.0062314 0.98563 255 0 0
0.042053 0.0087075 -0.0078558 1 0.084581 0.92808 -0.36264 255 0 0
0.045423 0.0089375 -0.0080134 1 -0.1692 -0.0059805 0.98556 255 0 0
0.043743 0.012227 -0.0039285 1 0.14049 -0.093812 0.98563 255 0 0
0.043823 0.010277 0.00066852 1 0.018595 -0.010561 0.99977 255 0 0
0.046503 0.011227 0.0011355 1 0.062963 0.99798 0.0081964 255 0 0
0.048653 0.0072575 -0.0080911 1 0.018506 -0.010437 0.99977 255 0 0
0.045983 0.0080075 0.0010265 1 -0.27842 0.66833 -0.68979 255 0 0
0.050083 0.0081275 -0.0081085 1 -0.14662 -0.98915 -0.008995 255 0 0
0.049193 0.0074375 0.0015735 1 0.044866 -0.9988 -0.019465 255 0 0
0.047753 0.011177 -0.0080336 1 -0.16945 -0.0063405 0.98552 255 0 0
0.047043 0.0098675 0.0012185 1 -0.028407 0.97615 0.21523 255 0 0
0.050393 0.0074275 0.0017785 1 0.018554 -0.010334 0.99977 255 0 0
0.046273 0.010517 -0.0080128 1 -0.1691 -0.0062201 0.98558 255 0 0
0.048273 0.010537 0.0014345 1 0.048095 -0.99876 -0.012705 255 0 0
0.048163 0.011777 0.0014235 1 0.018634 -0.010521 0.99977 255 0 0
0.048243 0.0097775 -0.0080572 1 -0.16898 -0.006134 0.9856 255 0 0
0.046713 0.0092175 -0.0080346 1 0.043341 -0.32852 -0.9435 255 0 0
0.050043 0.010087 0.0017345 1 -0.16921 -0.0061901 0.98556 255 0 0
0.049783 0.0096075 -0.0080876 1 -0.01859 0.010382 -0.99977 255 0 0
0.048893 0.0086775 0.0015295 1 -0.16933 -0.0059142 0.98554 255 0 0
0.047513 0.0081975 0.0012895 1 -0.018588 0.010431 -0.99977 255 0 0
0.050093 0.0086375 0.0017345 1 0.035144 -0.99934 -0.0092454 255 0 0
0.049333 0.011117 -0.0080635 1 0.022299 0.9997 0.0099295 255 0 0
0.047813 0.0086075 -0.0080615 1 -0.00078475 -0.17419 0.98471 255 0 0
0.050143 0.011307 0.0017595 1 -0.16883 -0.0066446 0.98562 255 0 0
0.051303 0.0091375 -0.0081208 1 -0.018595 0.010415 -0.99977 255 0 0
0.054663 0.0096275 0.0025255 1 0.047266 -0.99883 -0.0098521 255 0 0
0.054453 0.011857 -0.008151 1 0.01864 -0.010419 0.99977 255 0 0
0.052583 0.011327 0.0021795 1 -0.14392 -0.98957 -0.0067105 255 0 0
0.053353 0.0094075 0.0022985 1 0.018556 -0.010215 0.99978 255 0 0
0.055403 0.010317 -0.0081848 1 0.062911 0.99798 0.0086315 255 0 0
0.053123 0.011467 -0.0081304 1 0.049024 -0.99874 -0.010689 255 0 0
0.051543 0.0092775 0.0019875 1 0.020968 0.99975 0.008316 255 0 0
0.055103 0.0081975 0.0025905 1 0.13905 -0.1021 0.98501 255 0 0
0.054303 0.0097776 -0.00817 1 0.01872 -0.010503 0.99977 255 0 0
0.052783 0.0099975 -0.0081395 1 -0.14686 -0.98914 -0.006274 255 0 0
0.054423 0.0084376 -0.0081861 1 0.019709 0.99801 0.059911 255 0 0
0.050783 0.010677 -0.0080952 1 0.018594 -0.010474 0.99977 255 0 0
