ply
format ascii 1.0
comment author Paulo Abelha (p.abelha at abdn ac uk)
element vertex 708
property float x
property float y
property float z
property int segm
property float nx
property float ny
property float nz
property uchar red
property uchar green
property uchar blue
end_header
0.058329 -0.0039926 -0.0010465 2 0.0030572 -0.97951 0.20137 0 255 0
0.057489 -0.0030826 -0.0010185 2 0.010043 -0.94078 -0.33886 0 255 0
0.058459 0.00018742 -0.00091948 2 0.011587 -0.86508 -0.5015 0 255 0
0.060069 0.00056744 0.00087322 2 0.02485 0.17719 -0.98386 0 255 0
0.061349 -0.0035226 -0.0010342 2 8.296e-05 0.036363 0.99934 0 255 0
0.058879 -0.0036726 0.0011482 2 0.0014739 -0.42585 -0.90479 0 255 0
0.062209 -0.0028326 -0.001012 2 0.0031291 -0.99367 -0.11233 0 255 0
0.061119 -0.0012026 -0.00096097 2 0.0070383 0.03926 -0.9992 0 255 0
0.061229 -0.0023626 -0.00099707 2 0.013035 -0.69528 0.71863 0 255 0
0.059519 -0.0039226 -0.0010458 2 -0.0012666 -0.49618 -0.86822 0 255 0
0.059289 -0.0020126 -0.00098687 2 0.005073 -0.78062 -0.62498 0 255 0
0.058879 -0.0024226 0.0010673 2 0.03466 0.6997 0.7136 0 255 0
0.059979 -0.0010226 -0.00095617 2 0.011642 0.14061 -0.99 0 255 0
0.058429 -0.00069258 -0.00094657 2 0.14238 -0.015337 -0.98969 0 255 0
0.061729 -0.0035126 0.0011358 2 0.017899 0.096866 0.99514 0 255 0
0.059279 -1.2566e-05 0.00091242 2 -0.00027298 0.03695 0.99932 0 255 0
0.060089 -0.0031726 0.0011151 2 0.0064563 -0.082537 0.99657 0 255 0
0.059179 -0.0030226 -0.0010179 2 0.006899 0.037719 -0.99926 0 255 0
0.060269 -0.0031226 -0.0010213 2 0.011638 0.031303 -0.99944 0 255 0
0.059119 -0.0014026 0.0010019 2 0.030623 0.039187 0.99876 0 255 0
0.061979 -0.00091257 -0.00095167 2 -0.0077126 0.045279 0.99894 0 255 0
0.066069 3.7431e-05 -0.00091638 2 0.033483 0.53545 0.8439 0 255 0
0.065769 -0.0032626 -0.001025 2 0.010994 0.040285 -0.99913 0 255 0
0.063489 -0.00011257 -0.00092568 2 0.04973 0.8411 0.53859 0 255 0
0.064779 0.00015743 -0.00091478 2 0.05368 0.84783 0.52754 0 255 0
0.063059 -0.0037326 0.0011484 2 -0.00013361 0.03667 0.99933 0 255 0
0.064729 -0.0014826 -0.00096867 2 0.25054 -0.051316 -0.96674 0 255 0
0.064529 -0.0032426 0.0011138 2 0.049714 0.95904 0.27889 0 255 0
0.063559 0.00029744 0.00088372 2 -0.00088853 -0.3704 -0.92887 0 255 0
0.064039 -0.0039326 -0.0010474 2 0.020242 -0.54532 -0.83798 0 255 0
0.067149 -0.0040026 0.0011604 2 0.0055853 -0.15369 0.9881 0 255 0
0.067159 -0.00078257 -0.00094247 2 0.0076217 0.073369 0.99728 0 255 0
0.066409 -0.0031526 0.0011049 2 0.007701 0.079843 0.99678 0 255 0
0.066749 -0.0015926 -0.00097007 2 0.016042 -0.5868 -0.80957 0 255 0
0.066209 -0.00099256 0.00096213 2 0.0058584 0.040549 -0.99916 0 255 0
0.063169 -0.0010026 -0.00095397 2 0.034076 0.56588 0.82378 0 255 0
0.065189 -0.00089256 0.00095813 2 0.046072 0.91704 -0.39614 0 255 0
0.062559 -0.0038226 -0.0010437 2 0.0090425 -0.14402 -0.98953 0 255 0
0.064039 -0.00078257 -0.00094627 2 0.0030755 0.032689 -0.99946 0 255 0
0.064419 -0.0027726 -0.0010101 2 0.0042778 0.0091557 -0.99995 0 255 0
0.065329 -0.0023626 -0.00099647 2 -0.022125 -0.39731 0.91742 0 255 0
0.064159 -0.0024326 0.0010613 2 0.058846 0.99048 -0.12442 0 255 0
0.062999 -0.0017326 0.0010171 2 -0.13464 0.45206 0.88177 0 255 0
0.067119 -0.0018126 0.0010149 2 -0.041402 -0.5493 -0.8346 0 255 0
0.066539 -0.00013256 0.00090392 2 0.037169 0.51448 0.8567 0 255 0
0.063379 -0.0028526 0.0010899 2 -0.0025071 0.026158 -0.99965 0 255 0
0.066739 -0.0030526 -0.0010179 2 0.0090474 0.073118 0.99728 0 255 0
0.067399 -0.0031326 0.0011021 2 -0.005758 0.078486 0.9969 0 255 0
0.064869 -0.0035226 -0.0010337 2 0.0057656 0.070111 0.99752 0 255 0
0.063179 -0.0026626 -0.0010067 2 0.0012177 -0.34572 0.93834 0 255 0
0.064599 0.00051744 0.00086632 2 0.013734 0.25124 -0.96783 0 255 0
0.065379 -0.0034726 0.0011277 2 0.0055544 0.06899 0.9976 0 255 0
0.067369 -0.0022026 -0.00098967 2 0.046486 0.55688 0.82929 0 255 0
0.065799 -0.0015326 -0.00096907 2 0.015968 -0.36254 -0.93183 0 255 0
0.066759 -0.0040626 -0.0010501 2 0.023981 0.86564 -0.5001 0 255 0
0.062529 -0.00016257 -0.00092838 2 0.016656 -0.91196 0.40995 0 255 0
0.065339 -0.00078257 -0.00094477 2 0.016788 -0.99652 0.081606 0 255 0
0.065369 -0.0020126 0.0010317 2 -0.00081447 -0.66998 -0.74238 0 255 0
0.062679 0.00013744 0.00089642 2 0.0184 0.011004 -0.99977 0 255 0
0.066539 0.00073744 0.00084562 2 -0.012853 -0.0033036 -0.99991 0 255 0
0.064049 -0.0014026 0.00099383 2 0.025283 0.60121 0.79869 0 255 0
0.064389 -0.00045256 0.00093052 2 0.021349 -0.82471 0.56516 0 255 0
0.065619 -2.562e-06 0.00089752 2 0.0061906 0.04676 0.99889 0 255 0
0.066299 -0.0022026 0.0010428 2 0.0095975 -0.5804 -0.81427 0 255 0
0.072259 -0.0016626 -0.00096377 2 0.024266 0.23571 -0.97152 0 255 0
0.070439 -0.0015026 -0.00096177 2 0.0039073 -0.98626 -0.16514 0 255 0
0.070599 -0.0037126 -0.0010365 2 -3.6408e-05 0.18148 -0.98339 0 255 0
0.068009 -0.0014326 0.00098773 2 0.005609 -0.22542 -0.97424 0 255 0
0.068169 -0.0033526 -0.0010266 2 -0.0020606 -0.42628 0.90459 0 255 0
0.069799 -0.0031226 0.0010963 2 -0.0061988 -0.13381 0.99099 0 255 0
0.069219 -0.0013926 0.00098163 2 0.0046478 0.049914 0.99874 0 255 0
0.068949 -3.2567e-05 -0.00091518 2 0.0028848 0.055732 0.99844 0 255 0
0.068209 -0.0013326 -0.00095957 2 0.0035829 0.033424 -0.99943 0 255 0
0.072329 -0.0027426 -0.0010007 2 0.00081336 -0.0025474 -1 0 255 0
0.070659 -0.00063256 -0.00093227 2 0.01846 0.12654 -0.99179 0 255 0
0.068759 8.744e-05 0.00088412 2 0.019312 0.51348 0.85788 0 255 0
0.069789 -0.00030256 -0.00092288 2 -0.05915 -0.40835 -0.91091 0 255 0
0.071559 -0.00031256 0.00090272 2 0.06411 0.99475 -0.079709 0 255 0
0.070439 -0.0017926 0.0010051 2 -0.0031768 0.039031 0.99923 0 255 0
0.070739 -0.0038926 0.0011466 2 -0.0092496 -0.23506 -0.97194 0 255 0
0.069039 -0.0037426 0.0011396 2 0.025858 -0.51862 -0.85462 0 255 0
0.071709 -0.0012226 0.00096313 2 0.020311 0.24108 0.97029 0 255 0
0.067759 -0.00022256 0.00090672 2 0.024211 0.52696 0.84955 0 255 0
0.069029 -0.0026126 0.0010637 2 -0.0036588 -0.40512 0.91426 0 255 0
0.071799 -0.0027926 0.0010689 2 0.0022786 0.039636 0.99921 0 255 0
0.070579 0.00024744 0.00086762 2 0.011837 0.10804 -0.99408 0 255 0
0.071389 -0.0023226 -0.00098747 2 0.031224 0.32857 -0.94396 0 255 0
0.068119 -0.0039126 0.001153 2 0.27286 -0.23271 -0.93348 0 255 0
0.068519 -0.0023426 -0.00099297 2 0.0064314 -0.84831 0.52945 0 255 0
0.069739 -0.00052256 0.00092153 2 0.010679 0.2543 -0.96707 0 255 0
0.071699 -0.0035826 -0.0010305 2 0.025407 -0.021781 0.99944 0 255 0
0.071669 -0.00012256 -0.00091368 2 0.0086359 -0.078022 0.99691 0 255 0
0.069719 -0.0029926 -0.0010126 2 -0.0034244 0.055909 0.99843 0 255 0
0.070839 -0.0027726 0.00107 2 0.030507 0.38078 -0.92416 0 255 0
0.070669 -0.00096256 0.00094873 2 0.0017194 0.032711 -0.99946 0 255 0
0.070099 0.00068744 -0.00088928 2 0.014374 -0.0061141 -0.99988 0 255 0
0.068099 -0.0024926 0.0010579 2 0.025493 0.44299 -0.89616 0 255 0
0.067699 0.00021743 -0.00090838 2 -0.0016304 -0.80277 -0.59628 0 255 0
0.069439 -0.0011726 -0.00095237 2 0.0020703 -0.34507 -0.93857 0 255 0
0.068749 -0.0040026 -0.0010478 2 0.041298 0.66633 0.74451 0 255 0
0.071429 -0.0013926 -0.00095647 2 0.027399 0.50643 0.86184 0 255 0
0.070409 -0.0024226 -0.00099237 2 0.0029389 0.066787 0.99776 0 255 0
0.069619 0.00052744 0.00085162 2 -0.00062269 0.028743 -0.99959 0 255 0
0.069419 -0.0021326 -0.00098437 2 0.0023865 0.034474 -0.9994 0 255 0
0.076579 0.00046744 -0.00087988 2 -0.00045354 0.051875 0.99865 0 255 0
0.075819 -0.0025726 0.0010424 2 0.31298 -0.092119 -0.94528 0 255 0
0.076439 -0.0015526 -0.00095147 2 0.052294 0.96161 0.26938 0 255 0
0.074209 -0.0031926 -0.0010138 2 -0.0019902 0.027408 -0.99962 0 255 0
0.077319 -0.0037026 -0.0010254 2 0.017363 -0.50669 0.86195 0 255 0
0.074579 0.00062744 0.00082772 2 -0.010214 0.016923 -0.9998 0 255 0
0.076629 -0.00079256 0.00091643 2 0.0050773 0.036341 -0.99933 0 255 0
0.072719 -0.0036126 0.0011223 2 0.003541 -0.6459 -0.76341 0 255 0
0.075939 -0.00083256 -0.00092727 2 0.023983 0.088349 0.9958 0 255 0
0.075009 -8.2563e-05 -0.00090388 2 0.044024 0.96891 0.24348 0 255 0
0.075189 -0.0013526 -0.00094777 2 0.0052776 -0.50244 -0.8646 0 255 0
0.074829 -0.0029926 0.0010747 2 0.025779 0.24487 0.96921 0 255 0
0.073749 0.00018744 -0.00089778 2 0.040125 0.067028 0.99694 0 255 0
0.075019 -0.0023026 -0.00098147 2 0.0015073 -0.89685 -0.44233 0 255 0
0.077429 -0.0014526 -0.00094547 2 0.05326 0.99841 -0.018314 0 255 0
0.073739 -0.0029326 0.0010732 2 0.23217 -0.39354 0.88951 0 255 0
0.073979 -2.5568e-06 0.00087332 2 -0.0062951 0.034706 0.99938 0 255 0
0.073919 -0.0017626 0.00099293 2 0.0017328 0.034661 -0.9994 0 255 0
0.075339 -0.0017326 0.00098693 2 0.0097012 -0.27082 0.96258 0 255 0
0.073199 0.00057744 0.00083632 2 0.0050607 0.036888 -0.99931 0 255 0
0.073279 -0.0018926 -0.00097027 2 0.0076451 0.052968 -0.99857 0 255 0
0.076019 -0.0032326 -0.0010118 2 0.0055352 0.038533 -0.99924 0 255 0
0.074319 -0.00096256 0.00093703 2 -0.0025139 -0.91419 -0.40528 0 255 0
0.075139 -0.0033926 -0.001019 2 0.05476 0.99839 -0.014783 0 255 0
0.075049 -0.0038526 0.0011323 2 0.013491 -0.59922 -0.80047 0 255 0
0.072599 -0.00086256 0.00093633 2 0.013798 0.18937 -0.98181 0 255 0
0.072709 0.00032744 -0.00089558 2 0.038686 0.57284 -0.81875 0 255 0
0.075629 -0.00034256 0.00088972 2 7.4326e-05 0.03193 -0.99949 0 255 0
0.074079 -0.0022926 -0.00098287 2 0.023123 0.12343 -0.99208 0 255 0
0.076789 -0.0017426 0.00098193 2 0.05246 0.98341 0.17363 0 255 0
0.073209 -0.0030826 -0.0010115 2 0.002934 0.065475 0.99785 0 255 0
0.073649 -0.0039026 -0.0010389 2 0.0037502 0.036539 -0.99933 0 255 0
0.074259 -0.00067256 -0.00092637 2 0.055772 0.81032 0.58332 0 255 0
0.072819 -0.0021426 0.0010217 2 0.022772 -0.36461 -0.93088 0 255 0
0.073709 -0.0038726 0.0011379 2 0.011792 -0.83945 0.54331 0 255 0
0.076679 -0.0030126 0.0010699 2 -0.92738 -0.37405 -0.0073894 0 255 0
0.076219 0.00037744 0.00083762 2 0.0053972 0.071275 0.99744 0 255 0
0.073019 -0.00099256 -0.00094017 2 0.016061 0.0942 -0.99542 0 255 0
0.072729 -0.0038626 -0.0010387 2 0.041101 0.94782 0.31614 0 255 0
0.077009 -2.5548e-06 0.00086042 2 0.0040965 -0.16767 0.98583 0 255 0
0.075979 -0.0036426 0.0011152 2 0.00058119 0.062989 0.99801 0 255 0
0.076729 -0.0023926 -0.00098107 2 -0.0037986 0.035306 0.99937 0 255 0
0.077009 -0.00061256 -0.00091647 2 -0.065185 -0.12903 0.9895 0 255 0
0.078609 -0.0013026 0.00094473 2 0.022006 0.49687 -0.86755 0 255 0
0.080439 -0.0037426 -0.0010194 2 0.00091962 -0.2778 0.96064 0 255 0
0.081169 -0.0020126 0.00098283 2 -0.00017622 0.060242 0.99818 0 255 0
0.079029 0.00056744 -0.00086928 2 0.037333 0.67943 0.73279 0 255 0
0.077619 6.7438e-05 -0.00089058 2 0.013688 0.073596 -0.99719 0 255 0
0.078849 -0.0041226 -0.0010372 2 -0.0299 -0.12333 0.99191 0 255 0
0.078369 -0.0026326 -0.00098537 2 0.020273 0.087097 0.99599 0 255 0
0.081219 -0.0027726 -0.00098157 2 0.0050554 0.019185 -0.9998 0 255 0
0.078089 -0.0023726 0.0010209 2 0.029272 0.71991 0.69345 0 255 0
0.078189 -0.0035426 -0.0010181 2 0.025521 0.061785 -0.99776 0 255 0
0.080239 -0.0016626 0.00096293 2 -0.00246 0.055855 0.99844 0 255 0
0.080409 -0.0016626 -0.00094467 2 0.0081138 -0.87797 -0.47866 0 255 0
0.081309 -3.2552e-05 0.00084532 2 0.005886 -0.29915 -0.95419 0 255 0
0.081409 -0.0014526 -0.00093387 2 0.18026 -0.015995 -0.98349 0 255 0
0.078709 -0.00038256 0.00088052 2 0.0026156 0.060716 0.99815 0 255 0
0.081469 -0.0037826 0.001106 2 0.0064546 -0.87866 0.4774 0 255 0
0.082039 -0.0022526 -0.00096037 2 0 0 0 0 255 0
0.078389 -0.0013726 -0.00094017 2 0.022343 0.66395 0.74744 0 255 0
0.079599 -0.0039926 0.0011281 2 0.0076947 0.04399 -0.999 0 255 0
0.079379 -0.0017126 -0.00094997 2 0.017125 0.34175 -0.93964 0 255 0
0.079529 -0.0031826 -0.0010018 2 -0.034448 -0.77755 0.62787 0 255 0
0.079869 0.00014744 -0.00088168 2 0.0032017 -0.64914 -0.76066 0 255 0
0.080039 -0.00071256 0.00089773 2 0.00018925 0.030792 -0.99953 0 255 0
0.081989 -0.0029126 0.0010417 2 0.0029588 -0.99655 0.082933 0 255 0
0.081599 -0.0036826 -0.0010137 2 0.0076135 0.072738 0.99732 0 255 0
0.078379 -0.0040426 0.001135 2 0.030346 0.080474 0.9963 0 255 0
0.079899 -0.00075256 -0.00091387 2 -0.11279 -0.53874 0.83489 0 255 0
0.080349 -0.0028426 -0.00098707 2 0.0051697 0.070271 0.99751 0 255 0
0.078679 -0.00031256 -0.00090158 2 0.032566 0.041205 -0.99862 0 255 0
0.081919 -0.0014126 0.00093763 2 0.053248 0.98616 0.15701 0 255 0
0.077499 -0.0040626 0.0011388 2 0.030967 0.65069 -0.75872 0 255 0
0.079379 -0.0021526 0.0010007 2 0.0028808 0.020972 -0.99978 0 255 0
0.081609 0.00073744 -0.00085378 2 0.11575 -0.031531 -0.99278 0 255 0
0.082329 -0.00036256 -0.00089158 2 -0.0041089 -0.070164 0.99753 0 255 0
0.082379 -0.0037626 0.0011006 2 0.037093 0.89357 0.44739 0 255 0
0.077689 -0.0010326 0.00092953 2 0.0049258 0.016872 -0.99985 0 255 0
0.080449 -0.0031726 0.0010667 2 0.028403 0.11413 -0.99306 0 255 0
0.077969 0.00041744 0.00082782 2 -0.00055936 0.036107 0.99935 0 255 0
0.077489 -0.0028426 -0.00099507 2 -0.0023339 0.039319 0.99922 0 255 0
0.079869 0.00026744 0.00083062 2 0.019078 0.17819 -0.98381 0 255 0
0.082119 -0.00037255 0.00086462 2 -0.54075 -0.49564 -0.67965 0 255 0
0.078979 -0.0031226 0.0010699 2 -0.0065261 -0.030583 -0.99951 0 255 0
0.081019 -0.0011326 0.00092283 2 -0.008887 -0.24221 0.97018 0 255 0
0.081169 -0.00047256 -0.00089948 2 0.022162 0.23043 0.97284 0 255 0
0.083269 -0.0041426 -0.0010259 2 0.0072218 0.072656 0.99733 0 255 0
0.085349 -0.0014526 -0.00091887 2 0.03013 0.60509 0.79559 0 255 0
0.086989 0.00056744 -0.00083678 2 -0.91934 -0.39343 0.0043173 0 255 0
0.085919 -0.0028526 -0.00096917 2 0.001653 0.06319 0.998 0 255 0
0.082529 -0.0035826 -0.0010074 2 -0.020874 -0.047834 -0.99864 0 255 0
0.084339 -0.0030826 -0.00098377 2 0.049158 0.85383 -0.51823 0 255 0
0.087049 -0.0013526 0.00090723 2 0.020495 0.29505 0.95526 0 255 0
0.087269 -0.0030926 -0.00097297 2 -0.0032286 -0.56515 0.82498 0 255 0
0.086579 -0.0037126 -0.00099867 2 0.011588 -0.27355 -0.96179 0 255 0
0.082639 -0.0016126 -0.00093577 2 -0.014186 -0.44508 0.89538 0 255 0
0.084569 -0.0038426 0.0010972 2 -0.049149 -0.96197 -0.2687 0 255 0
0.085439 -0.0041126 -0.0010175 2 0.00644 0.017791 -0.99982 0 255 0
0.085879 -0.0029026 0.0010244 2 0.0077235 -0.10221 0.99473 0 255 0
0.087419 -0.0018026 -0.00092307 2 0.0056768 -0.84249 0.53868 0 255 0
0.086339 -0.0019326 -0.00093267 2 0.051858 0.71548 -0.69671 0 255 0
0.086929 -0.0034426 0.001057 2 0.0050742 0.070477 0.9975 0 255 0
0.085049 -0.0023326 -0.00095337 2 0.0061543 0.03867 -0.99923 0 255 0
0.085969 0.00049745 0.00078222 2 0.019104 0.45457 -0.8905 0 255 0
0.086499 -0.00070256 -0.00088567 2 -0.0038083 0.015063 -0.99988 0 255 0
0.083409 -0.0027326 -0.00097367 2 0.0027736 0.029425 -0.99956 0 255 0
0.084049 -0.00084255 0.00088803 2 -0.0049056 -0.056871 -0.99837 0 255 0
0.084909 -0.00052256 -0.00088667 2 0.0035021 0.061865 0.99808 0 255 0
0.083549 -0.0016526 -0.00093407 2 0.012283 0.081278 0.99662 0 255 0
0.082649 -0.0019226 0.00096993 2 0.0042779 0.035856 -0.99935 0 255 0
0.084989 -0.00013255 0.00083232 2 -0.0097209 0.040671 0.99913 0 255 0
0.083449 -0.0014626 0.00093483 2 0.02178 0.47714 -0.87856 0 255 0
0.083419 0.00033744 -0.00086108 2 0.0083138 0.072294 0.99735 0 255 0
0.086439 -0.0020826 0.00096293 2 0.044387 0.075602 0.99615 0 255 0
0.084619 -0.0023326 0.00098993 2 0.0045854 0.037968 -0.99927 0 255 0
0.083419 -0.00071256 -0.00089997 2 0.051753 0.98876 -0.14029 0 255 0
0.083149 -0.00032255 0.00085612 2 0.0057366 -0.17199 0.98508 0 255 0
0.085829 -0.0012526 0.00090633 2 0.015399 -0.37484 -0.92696 0 255 0
0.086729 -9.2549e-05 0.00081952 2 0.012936 0.073789 0.99719 0 255 0
0.084929 -0.0012126 0.00090923 2 0.014799 -0.213 -0.97694 0 255 0
0.083759 -0.0024226 0.00099993 2 0.12154 -0.56926 0.81312 0 255 0
0.082739 0.00046745 0.00080242 2 0.034369 0.3876 0.92119 0 255 0
0.083239 -0.0036626 0.0010902 2 0.011897 0.026996 0.99956 0 255 0
0.086139 0.00025744 -0.00085228 2 0.020339 0.04896 0.99859 0 255 0
0.085239 0.00048744 -0.00084798 2 0.029659 0.55892 -0.82869 0 255 0
0.083959 9.745e-05 0.00082242 2 -0.91873 -0.39478 -0.0096186 0 255 0
0.090969 -0.0031926 -0.00095897 2 -0.0088652 -0.32757 -0.94479 0 255 0
0.088359 -0.0013526 0.00089963 2 0.012143 -0.88393 -0.46745 0 255 0
0.091809 -0.0034126 -0.00096307 2 0.0061116 0.038727 -0.99923 0 255 0
0.092229 -0.0041926 -0.00099136 2 0.026405 -0.84083 0.54066 0 255 0
0.089599 -0.0037026 0.0010609 2 0.0094644 -0.10429 -0.9945 0 255 0
0.089509 0.00015745 -0.00083938 2 0.010867 -0.87975 -0.47532 0 255 0
0.088339 -0.0040126 0.0010904 2 0.10544 0.13351 -0.98542 0 255 0
0.091899 -0.00064255 -0.00085647 2 -0.0027288 0.037423 0.9993 0 255 0
0.089989 -0.00032254 0.00081602 2 -0.019355 -0.14554 -0.98916 0 255 0
0.090519 -0.00069255 -0.00086657 2 0.051086 0.99869 0.00063817 0 255 0
0.089459 0.00038745 0.00076912 2 0.012392 -0.058623 -0.9982 0 255 0
0.089559 -0.0042426 -0.0010063 2 0.0052007 0.0078863 -0.99996 0 255 0
0.088639 -0.00044255 0.00083312 2 -0.011229 -0.84186 -0.53958 0 255 0
0.090809 -0.0015426 0.00089843 2 0.0099773 0.16926 -0.98552 0 255 0
0.090589 -0.0029826 0.0010032 2 -0.010845 -0.091458 0.99575 0 255 0
0.091549 -0.0025126 -0.00093017 2 0.0036156 0.06892 0.99762 0 255 0
0.092129 -0.0040926 0.0010735 2 0.010824 -0.068207 0.99761 0 255 0
0.088229 -0.0025226 -0.00094727 2 0.052535 0.1054 0.99304 0 255 0
0.088179 0.00065745 0.00075772 2 0.0054286 -0.98984 0.14212 0 255 0
0.089739 -0.0027226 0.00098953 2 -0.0053104 0.024774 -0.99968 0 255 0
0.091259 -0.0038526 0.0010616 2 -0.0014105 0.03616 0.99935 0 255 0
0.090249 -0.0023926 -0.00093267 2 0.0065018 0.038501 -0.99924 0 255 0
0.091169 -0.0041826 -0.00099626 2 0.029449 0.52015 0.85357 0 255 0
0.091099 -0.00071254 0.00083643 2 -0.0067349 0.052874 0.99858 0 255 0
0.091539 -0.0026626 0.00097383 2 -0.013735 -0.16108 -0.98685 0 255 0
0.089449 -0.0012226 0.00088393 2 0.053219 0.051571 0.99725 0 255 0
0.089809 -0.0014626 -0.00089947 2 0.061112 0.88452 0.46248 0 255 0
0.092119 -0.00011254 0.00078582 2 -0.009955 -0.39563 0.91836 0 255 0
0.088229 -0.0034726 -0.00098307 2 0.0073142 -0.88572 -0.46417 0 255 0
0.088779 -0.00034255 -0.00086198 2 0.0012421 0.033415 -0.99944 0 255 0
0.088069 -0.0022126 0.00096293 2 0.099432 -0.54612 -0.83178 0 255 0
0.089529 -0.0030826 -0.00096237 2 0.034565 0.83236 0.55316 0 255 0
0.091199 0.00047745 -0.00081678 2 0.0040862 0.063532 0.99797 0 255 0
0.092169 -0.0018826 -0.00090297 2 0.015429 -0.11302 0.99347 0 255 0
0.088899 -0.0012926 -0.00089737 2 -0.0023758 0.035618 0.99936 0 255 0
0.092069 -0.0018726 0.00091403 2 0.039623 0.81383 0.57975 0 255 0
0.087789 -0.00019255 0.00082032 2 0.034106 0.074801 0.99662 0 255 0
0.087499 -0.00031255 -0.00086658 2 -0.0045126 -0.0060899 -0.99997 0 255 0
0.089099 -0.0022026 -0.00093117 2 0.02209 0.10429 0.9943 0 255 0
0.092159 0.00042745 -0.00081308 2 0.30629 -0.21277 0.92785 0 255 0
0.090669 0.00024746 0.00077002 2 -0.00011171 0.058088 0.99831 0 255 0
0.087479 -0.0040926 -0.0010093 2 0.047072 -0.28507 0.95735 0 255 0
0.088569 -0.0031726 0.0010287 2 0.020878 0.066323 0.99758 0 255 0
0.091319 -0.0013926 -0.00088887 2 0.19535 -0.22486 0.95461 0 255 0
0.093189 -0.0038426 0.0010486 2 0.014481 0.23609 -0.97162 0 255 0
0.096519 -0.0039126 -0.00095597 2 0.018786 -0.19731 -0.98016 0 255 0
0.095619 -0.0021826 0.00091033 2 -0.0012039 0.011927 -0.99993 0 255 0
0.095099 -0.0028026 -0.00092107 2 0.0076703 -0.82058 -0.57148 0 255 0
0.094479 -0.0010826 0.00083893 2 0.0057568 0.037562 -0.99928 0 255 0
0.092769 -0.0027226 0.00097013 2 -0.00061006 0.039327 0.99923 0 255 0
0.093639 -6.255e-05 -0.00082388 2 0.029892 0.69071 0.72251 0 255 0
0.096669 -0.0040326 0.0010373 2 0.0031974 0.056334 0.99841 0 255 0
0.093059 0.00066746 0.00072251 2 -0.0059038 0.073235 0.9973 0 255 0
0.096369 -0.0027126 -0.00090917 2 0.019206 0.17163 0.98497 0 255 0
0.094109 -0.0029626 -0.00093367 2 0.0027412 -0.90398 -0.42756 0 255 0
0.094459 -0.00066255 -0.00084157 2 0.0017517 -0.84859 0.52906 0 255 0
0.094369 -0.0039926 -0.00097237 2 0.0048204 0.061999 0.99806 0 255 0
0.097339 -0.0022426 0.00090133 2 0.013304 0.03897 -0.99915 0 255 0
0.093409 -0.0013626 -0.00087557 2 0.0072518 0.093407 -0.9956 0 255 0
0.092889 -0.0032826 -0.00095287 2 0.040774 0.94024 0.33807 0 255 0
0.095819 -0.00091254 0.00081623 2 0.0026653 0.029328 -0.99957 0 255 0
0.095919 0.00056745 -0.00078338 2 0.0013035 0.034498 -0.9994 0 255 0
0.092609 -0.0010226 0.00084883 2 0.0083745 -0.99852 -0.053692 0 255 0
0.094619 -0.0017926 -0.00088447 2 0.0017619 0.037938 0.99928 0 255 0
0.092869 -0.00055255 -0.00084737 2 0.028279 0.64402 -0.76448 0 255 0
0.093259 -0.0022626 -0.00091157 2 0.022985 0.040392 -0.99892 0 255 0
0.097059 -0.0031126 0.00096693 2 0.019649 -0.055258 -0.99828 0 255 0
0.096209 -0.0016926 -0.00086967 2 0.045776 0.77116 0.635 0 255 0
0.095259 -0.0039826 -0.00096657 2 -0.0026683 -0.036479 -0.99933 0 255 0
0.093399 -0.0040226 -0.00097916 2 0.0014706 0.032068 -0.99948 0 255 0
0.095609 -0.00047255 -0.00082627 2 0.007763 -0.12839 0.99169 0 255 0
0.094959 0.00064745 -0.00078699 2 0.0069435 0.039394 -0.9992 0 255 0
0.096489 -0.00035255 -0.00081558 2 0.037323 -0.52998 0.84719 0 255 0
0.094559 -0.0022726 0.00092483 2 -0.01754 -0.20897 0.97776 0 255 0
0.094449 -0.0035226 0.001017 2 0.011195 -0.63122 -0.77553 0 255 0
0.097059 -0.0014426 -0.00085427 2 0.0019619 0.039586 0.99921 0 255 0
0.095869 -0.0036026 0.0010127 2 0.029544 0.52809 -0.84867 0 255 0
0.093319 -0.0020526 0.00091863 2 0.017737 0.2438 0.96966 0 255 0
0.097159 -0.00080254 0.00079723 2 -0.92635 -0.37536 0.031152 0 255 0
0.093749 -0.0030026 0.00098413 2 0.026831 0.21704 0.97579 0 255 0
0.096589 -0.0015626 0.00085683 2 0.055826 -0.0057336 0.99842 0 255 0
0.093789 -3.2544e-05 0.00076812 2 0.021011 -0.92458 0.38042 0 255 0
0.096429 0.00031746 0.00072172 2 0.02327 0.36378 -0.93119 0 255 0
0.094959 0.00014746 0.00074642 2 0.022966 0.090714 0.99561 0 255 0
0.095139 -0.0029726 0.00097163 2 0.0068862 0.071336 0.99743 0 255 0
0.097149 0.00060745 -0.00077259 2 -0.013608 -0.40186 -0.9156 0 255 0
0.096479 -0.0024626 0.00092413 2 0.034576 0.5732 0.81869 0 255 0
0.095629 0.00069746 0.00070071 2 0.010021 0.21702 0.97612 0 255 0
0.10072 -0.0025026 -0.00086837 2 0.0034531 -0.85075 -0.52556 0 255 0
0.099879 0.00034746 0.00068812 2 0.043455 0.53826 -0.84166 0 255 0
0.098559 0.00064745 -0.00076029 2 -0.0015615 0.025548 -0.99967 0 255 0
0.097589 -0.0026526 -0.00089877 2 0.0081847 0.07299 0.9973 0 255 0
0.10163 -0.0024226 -0.00085747 2 0.034575 0.80707 0.58945 0 255 0
0.098239 -0.0033526 0.00097533 2 0.0025807 -0.29748 -0.95472 0 255 0
0.099219 -0.0041326 -0.00094506 2 0.003641 0.01147 -0.99993 0 255 0
0.10233 -0.00011254 0.00069592 2 0.0082159 -0.21087 0.97748 0 255 0
0.099469 -0.00038255 -0.00079348 2 0.024221 0.3423 0.93928 0 255 0
0.10226 -0.0033226 -0.00088667 2 0.34196 0.72886 -0.59315 0 255 0
0.097549 0.00070746 0.00068331 2 0.036222 0.60413 -0.79606 0 255 0
0.097849 -0.00064255 -0.00081757 2 0.03094 -0.40505 0.91377 0 255 0
0.10222 -0.0029526 0.00090703 2 0.0057486 -0.30255 -0.95312 0 255 0
0.10021 -0.0033626 -0.00090657 2 0.0082366 -0.28646 -0.95806 0 255 0
0.099119 -0.00052254 0.00075903 2 -0.011894 -0.5553 -0.83156 0 255 0
0.098409 -0.0032626 -0.00091717 2 0.01988 0.40835 0.91261 0 255 0
0.10018 -0.0013626 0.00081073 2 0.018706 0.31553 0.94873 0 255 0
0.097459 -0.0037726 -0.00094427 2 0.0030174 0.034601 -0.9994 0 255 0
0.10112 -0.0033826 0.00095043 2 0.059929 -0.065102 0.99608 0 255 0
0.10197 0.00016745 -0.00074928 2 0.0039808 0.034966 -0.99938 0 255 0
0.10106 -0.00087254 0.00076583 2 0.0053933 0.03807 -0.99926 0 255 0
0.10108 -0.0023726 0.00087703 2 0.11623 -0.2592 0.9588 0 255 0
0.099839 -0.0022426 0.00087923 2 0.0029944 0.065437 0.99785 0 255 0
0.099619 -0.0013326 -0.00083037 2 -0.0034239 0.034308 0.99941 0 255 0
0.098949 -0.0020926 -0.00086637 2 0.0079724 0.072269 0.99735 0 255 0
0.099859 -0.0023926 -0.00087077 2 -0.0011141 0.027559 -0.99962 0 255 0
0.10075 -0.0040926 -0.00093136 2 0.0038847 0.036684 -0.99932 0 255 0
0.098879 -0.0017626 0.00085283 2 0.0043802 0.060684 0.99815 0 255 0
0.098919 -0.0027326 0.00092293 2 0.015518 0.12741 -0.99173 0 255 0
0.099339 -0.0032526 -0.00090937 2 0.028947 0.49922 0.86599 0 255 0
0.098779 0.00070746 0.00067171 2 -0.00047058 0.15519 -0.98788 0 255 0
0.098259 -0.00080254 0.00078793 2 0.0084866 -0.18564 -0.98258 0 255 0
0.099219 -0.0039426 0.0010096 2 0.00096506 0.03662 0.99933 0 255 0
0.10059 -0.0016426 -0.00083477 2 0.0085278 0.019212 -0.99978 0 255 0
0.10159 -0.00090255 -0.00079677 2 0.007918 0.18997 -0.98176 0 255 0
0.098639 -0.0012826 -0.00083647 2 0.0029402 0.063678 0.99797 0 255 0
0.10112 5.7455e-05 -0.00076188 2 -0.019667 -0.21936 -0.97545 0 255 0
0.099859 -0.0031226 0.00094293 2 0.045534 0.83654 -0.54601 0 255 0
0.10207 -0.0040326 0.00098904 2 0.0058006 0.069549 0.99756 0 255 0
0.10218 -0.0018526 0.00082593 2 -0.005313 0.03339 0.99943 0 255 0
0.10051 -0.00056255 -0.00079207 2 0.0025591 0.034495 0.9994 0 255 0
0.10112 4.746e-05 0.00069752 2 0.00047039 0.033165 0.99945 0 255 0
0.10132 -0.0034026 -0.00089947 2 0.0079288 0.018921 -0.99979 0 255 0
0.10592 -0.00080255 -0.00073907 2 0.0091206 0.073446 0.99726 0 255 0
0.10697 -0.00082254 -0.00072277 2 0.0087103 0.072874 0.9973 0 255 0
0.10416 -0.0037226 -0.00088197 2 0.0042069 -0.5857 -0.81052 0 255 0
0.10418 -0.00044254 0.00069723 2 0.022499 0.074285 0.99698 0 255 0
0.10251 -0.0016826 -0.00081807 2 -0.05838 -0.45068 0.89078 0 255 0
0.10345 0.00020746 0.00065752 2 0.02528 -0.80286 0.59563 0 255 0
0.10295 -0.0035726 0.00094403 2 -0.0010325 0.059363 0.99824 0 255 0
0.10425 -0.0027526 0.00086733 2 -0.010289 -0.18007 0.9836 0 255 0
0.10733 -0.00037254 0.00063972 2 -0.0053996 -0.24088 0.97054 0 255 0
0.1025 -0.0010126 0.00076023 2 0.012853 0.23681 -0.97147 0 255 0
0.10297 -0.0026226 -0.00085057 2 0.02039 -0.22291 -0.97463 0 255 0
0.10647 -0.0042126 0.00094014 2 -0.025966 -0.40795 -0.91263 0 255 0
0.10728 0.00018746 -0.00067578 2 0.033488 0.64706 0.76171 0 255 0
0.10656 -0.0024726 0.00080983 2 0.015486 0.074981 -0.99706 0 255 0
0.10372 -0.0021426 -0.00082317 2 0.015145 -0.12534 0.992 0 255 0
0.10303 -0.00022255 -0.00075338 2 0.0074916 0.052884 0.99857 0 255 0
0.10694 -0.0027526 -0.00080177 2 -1.0419e-05 -0.2636 0.96463 0 255 0
0.10716 -0.0016026 0.00073403 2 -0.011676 -0.033998 -0.99935 0 255 0
0.10336 -0.0012526 0.00076733 2 -0.92178 0.066219 -0.38201 0 255 0
0.10387 -0.0011326 -0.00078047 2 -0.05454 0.34871 -0.93564 0 255 0
0.10639 -0.0015926 -0.00076327 2 0.013705 -0.073441 0.99721 0 255 0
0.10609 -0.0037826 -0.00085687 2 0.0029627 0.031985 -0.99948 0 255 0
0.10506 -0.0029126 -0.00083837 2 -0.0013878 0.019694 -0.99981 0 255 0
0.10647 -0.00061254 0.00067323 2 0.031116 0.41816 0.90784 0 255 0
0.10612 0.00047746 0.00059842 2 -0.039621 0.62068 0.78306 0 255 0
0.10561 -0.0022026 -0.00080067 2 0.0042827 -0.68059 -0.73265 0 255 0
0.10505 -0.0019826 0.00079913 2 0.0020421 0.033888 -0.99942 0 255 0
0.10568 -0.0036626 0.00091323 2 0.0041806 0.014387 -0.99989 0 255 0
0.10507 -0.00087254 0.00071713 2 0.042876 0.83736 -0.54497 0 255 0
0.10744 -0.0037326 -0.00083327 2 0.040904 0.89018 -0.45377 0 255 0
0.10461 -4.2543e-05 -0.00072798 2 -0.91848 -0.39546 0.0033768 0 255 0
0.10323 -0.0034726 -0.00088197 2 -0.0070258 -0.068812 -0.99761 0 255 0
0.10427 -0.0013726 0.00076493 2 -0.0029556 0.1783 -0.98397 0 255 0
0.10449 -0.0041526 0.00096774 2 0.022663 0.13863 -0.99008 0 255 0
0.10617 6.7458e-05 -0.00069928 2 0.00010362 0.025555 -0.99967 0 255 0
0.10531 7.7463e-05 0.00064252 2 -0.91626 -0.40059 -0.0016226 0 255 0
0.10319 -0.0021626 0.00083643 2 0.01329 -0.43331 0.90114 0 255 0
0.10517 -0.0029726 0.00087053 2 -0.0043238 0.0022652 -0.99999 0 255 0
0.10476 -0.0015226 -0.00078627 2 0.021386 -0.094878 0.99526 0 255 0
0.10677 -0.0033226 0.00086913 2 -0.064615 -0.93341 -0.35294 0 255 0
0.10618 -0.0015226 0.00074583 2 -0.018361 -0.17319 -0.98472 0 255 0
0.11058 0.00024746 -0.00058578 2 0.024258 0.17413 -0.98442 0 255 0
0.10793 0.00060746 0.00055561 2 0.006068 0.084087 0.99644 0 255 0
0.10904 -0.0038926 -0.00080537 2 0.0084827 -0.26399 -0.96449 0 255 0
0.11052 -0.0011126 -0.00065567 2 0.0055673 0.065748 0.99782 0 255 0
0.11158 -0.0031026 -0.00070277 2 0.0047429 0.067731 0.99769 0 255 0
0.10834 -0.0018126 0.00072593 2 0.0085639 -0.27504 0.9614 0 255 0
0.11157 -0.00073254 -0.00059917 2 0.03423 0.46055 0.88697 0 255 0
0.10933 -0.00088254 -0.00067517 2 0.018334 -0.042367 0.99893 0 255 0
0.10948 -0.00052253 0.00060033 2 0.01607 -0.1915 -0.98136 0 255 0
0.1103 -0.0034426 -0.00075777 2 -0.0050804 0.0021708 -0.99998 0 255 0
0.1116 -0.0020626 -0.00065877 2 0.022755 0.0015232 -0.99974 0 255 0
0.11085 -0.0026226 -0.00070757 2 0.0032234 -0.11753 0.99306 0 255 0
0.1085 -0.0039426 0.00087933 2 0.0256 0.082831 0.99624 0 255 0
0.10921 0.00049746 -0.00061669 2 0.018089 -0.052945 -0.99843 0 255 0
0.11244 -0.0028126 -0.00066147 2 0.0076984 0.12846 -0.99168 0 255 0
0.10913 -0.0014726 0.00068023 2 0.029299 0.30844 0.95079 0 255 0
0.10764 -0.0016326 -0.00074487 2 0.0082795 0.040206 -0.99916 0 255 0
0.10846 -0.0031926 -0.00079037 2 0.029986 0.51972 0.85381 0 255 0
0.10765 -0.0036226 0.00087563 2 0.0031212 0.065645 0.99784 0 255 0
0.10812 -0.00081254 -0.00070177 2 -0.10406 0.5729 0.81299 0 255 0
0.11182 -0.0023226 0.00066333 2 0.01806 -0.57192 -0.82011 0 255 0
0.10876 -0.0019326 -0.00073217 2 0.10049 -0.041688 0.99406 0 255 0
0.10977 -0.0019226 -0.00070777 2 0.0051471 -0.18543 -0.98264 0 255 0
0.11128 -0.0034026 0.00076283 2 0.081164 -0.17317 0.98154 0 255 0
0.1106 -0.0039726 0.00082904 2 -0.46677 0.49139 -0.7353 0 255 0
0.11177 -0.0011926 0.00057923 2 0.0050478 0.068497 0.99764 0 255 0
0.11045 -0.00017253 0.00054792 2 0.0018392 0.25012 -0.96821 0 255 0
0.10981 0.00049747 0.00051301 2 -0.0066365 0.013114 -0.99989 0 255 0
0.11127 -0.0039526 -0.00074847 2 0.004988 -0.28535 0.95841 0 255 0
0.11137 -0.00036253 0.00052812 2 0.007321 -0.46623 -0.88463 0 255 0
0.10853 -0.00030253 0.00060842 2 0.045052 0.97381 0.22286 0 255 0
0.10954 -0.0033626 0.00081053 2 0.0092024 0.051881 0.99861 0 255 0
0.10942 -0.0024526 0.00074613 2 0.0053674 -0.13977 -0.99017 0 255 0
0.11189 0.00048747 -0.00047329 2 0.00043361 0.029106 -0.99958 0 255 0
0.10811 -0.0026926 0.00079643 2 0.014536 -0.33073 0.94361 0 255 0
0.1123 -0.0036826 -0.00070267 2 0.0077928 -0.98477 0.17371 0 255 0
0.11068 -0.0014026 0.00063463 2 0.0020392 0.060671 0.99816 0 255 0
0.11074 -0.0026826 0.00072783 2 0.010601 -0.23394 -0.97219 0 255 0
0.10942 -0.0031126 -0.00076497 2 -0.0080135 -0.97401 0.22636 0 255 0
0.11241 -0.0037526 0.00074993 2 0.0012411 0.0041498 -0.99999 0 255 0
0.1155 -0.0012226 -0.00028777 2 0.024129 0.60508 -0.7958 0 255 0
0.11369 0.00015747 -0.00029138 2 -0.0020614 -0.94311 0.33248 0 255 0
0.1149 -0.0014126 0.00042563 2 0.010605 -0.1256 -0.99202 0 255 0
0.11263 -0.00010253 -0.00048418 2 0.011924 -0.60872 -0.7933 0 255 0
0.1146 -0.00061253 0.00029703 2 -0.002849 0.022895 -0.99973 0 255 0
0.11522 -0.0021626 -0.00048107 2 0.008833 0.032274 -0.99944 0 255 0
0.1146 -0.0039726 -0.00062236 2 0.061701 -0.19971 -0.97791 0 255 0
0.1126 -0.0018826 0.00060133 2 0.0035933 0.035584 -0.99936 0 255 0
0.11729 -0.0024826 -0.00022737 2 -0.0063041 -0.043009 -0.99906 0 255 0
0.11333 -0.0024426 -0.00061067 2 0.0054401 -0.57754 -0.81634 0 255 0
0.11613 -0.0018826 0.00034313 2 0.0060276 0.069631 0.99755 0 255 0
0.11275 -0.0016526 -0.00059757 2 -0.00083588 -0.096066 0.99537 0 255 0
0.11332 -0.0038126 0.00072013 2 0.012881 0.1845 0.98275 0 255 0
0.1143 -0.0038326 0.00067803 2 0.00069999 0.023873 -0.99971 0 255 0
0.11427 -0.0022026 0.00054983 2 0.038513 0.58167 0.81251 0 255 0
0.11563 -0.0033026 -0.00053707 2 -0.0068982 -0.088571 0.99605 0 255 0
0.11261 -0.00026253 0.00046442 2 0.012558 -0.62313 -0.78202 0 255 0
0.11631 -0.0023526 -0.00037807 2 0.004152 0.069948 0.99754 0 255 0
0.11721 -0.0031226 0.00042833 2 0.0038412 0.065448 0.99785 0 255 0
0.11454 -0.0027926 -0.00056927 2 0.039457 0.66504 0.74577 0 255 0
0.11497 -0.0030126 0.00058183 2 0.018123 0.25642 -0.96639 0 255 0
0.11341 -0.0014026 0.00052603 2 0.023816 0.40529 -0.91388 0 255 0
0.11664 -0.0035526 -0.00048277 2 0.010053 0.073608 0.99724 0 255 0
0.11364 -0.00075253 -0.00046997 2 0.014347 -0.17073 0.98521 0 255 0
0.11699 -0.0040526 0.00055184 2 0.0033738 0.031772 -0.99949 0 255 0
0.11572 -0.0039226 0.00061753 2 0.029538 0.76518 -0.64314 0 255 0
0.11597 -0.0027726 0.00049863 2 0.069933 -0.5367 0.84087 0 255 0
0.11257 -0.0028726 0.00067793 2 -0.009789 -0.44723 -0.89436 0 255 0
0.11353 -0.0035926 -0.00065197 2 0.010859 -0.87175 -0.48984 0 255 0
0.11437 -0.0016726 -0.00050377 2 0 0 0 0 255 0
0.11365 -0.0029126 0.00063733 2 0.015908 0.44052 -0.8976 0 255 0
0.11785 -0.0038226 0.00045583 2 0.017871 0.64287 0.76576 0 255 0
0.11866 -0.0032626 0.00014253 2 0.0023753 -0.12674 0.99193 0 255 0
0.11752 -0.0033326 -0.00036197 2 -0.0022617 0.047133 0.99889 0 255 0
0.11955 -0.0042226 0.00024174 2 0.03112 0.7017 -0.71179 0 255 0
0.011889 0.0016474 0.0018222 2 0.0024065 -0.30292 -0.95301 0 255 0
0.012319 0.0021574 0.0011713 2 0.0064083 -0.48083 0.87679 0 255 0
0.0096093 0.0024174 0.00064831 2 0.0083166 0.053854 -0.99851 0 255 0
0.010319 0.0014474 0.0023646 2 0.0060627 0.06457 0.9979 0 255 0
0.010749 0.0017474 -0.0018846 2 0.0039194 0.041556 -0.99913 0 255 0
0.0098093 0.0020774 -0.0015176 2 0.02189 0.28211 -0.95913 0 255 0
0.0087193 0.0014474 0.0024491 2 0.0035535 0.034307 -0.9994 0 255 0
0.011199 0.0023474 -0.00057039 2 0.001548 0.065759 0.99783 0 255 0
0.010479 0.00084739 -0.002567 2 0.0053928 0.084943 0.99637 0 255 0
0.010029 0.0024074 -0.00043419 2 0.0087556 -0.17334 -0.98482 0 255 0
0.0089893 0.0024774 -0.00027299 2 -0.0084279 -0.14818 -0.98892 0 255 0
0.0085593 0.0023574 -0.001067 2 0.053456 0.75946 0.64836 0 255 0
0.0075793 0.0019374 0.0020617 2 0.020045 -0.118 -0.99281 0 255 0
0.0086093 0.0012874 -0.0024398 2 -0.0016224 0.10604 -0.99436 0 255 0
0.0081293 0.0024974 0.00064931 2 0.0050478 0.070009 0.99753 0 255 0
0.0092993 0.00087741 0.00277 2 0.0025552 0.2714 0.96246 0 255 0
0.011799 0.0021074 -0.0012756 2 0 0 0 0 255 0
0.011349 0.00099739 -0.0022689 2 0.10332 -0.089458 -0.99062 0 255 0
0.012159 0.0024174 -0.00013649 2 0.014037 0.073615 0.99719 0 255 0
0.0097893 0.0014474 -0.0022487 2 0.012144 -0.157 -0.98752 0 255 0
0.0094193 0.0018274 0.0020606 2 0.025642 -0.20557 -0.97831 0 255 0
0.010989 0.0023774 0.00028051 2 0.0056467 0.070765 0.99748 0 255 0
0.0087293 0.0023274 0.0012492 2 0.025494 0.21537 -0.9762 0 255 0
0.010399 0.0022874 0.0010809 2 -0.0019407 0.035706 0.99936 0 255 0
0.011159 0.0020574 0.0015319 2 -0.00087735 0.015564 -0.99988 0 255 0
0.0075993 0.0020174 -0.0017893 2 0.01194 -0.95773 -0.28741 0 255 0
0.016059 0.0033774 -0.0007352 2 0.0021062 -0.68767 -0.72602 0 255 0
0.015219 0.0030874 0.0003497 2 0.043571 0.50095 0.86438 0 255 0
0.012789 0.0013874 -0.0017832 2 0.036156 0.66016 0.75026 0 255 0
0.015169 0.0019274 0.0012648 2 0.026297 0.71667 -0.69692 0 255 0
0.014149 0.0026074 0.00063231 2 0.004684 0.059699 0.99821 0 255 0
0.013809 0.0024274 -0.00099479 2 0.07892 0.094099 0.99243 0 255 0
0.016749 0.0014374 0.0010846 2 -0.0085959 -0.31404 0.94937 0 255 0
0.016829 0.0029274 -0.00099439 2 0.042247 0.99325 0.10798 0 255 0
0.016369 0.0035274 0.0005489 2 -0.020053 -0.57115 -0.8206 0 255 0
0.012759 0.0023474 -0.00087839 2 0.012142 0.032397 0.9994 0 255 0
0.015619 0.0016774 -0.0012558 2 0.0097587 -0.28095 0.95967 0 255 0
0.013229 0.0022174 0.0010697 2 0.0064567 -0.25367 -0.96727 0 255 0
0.014509 0.0012174 0.0014996 2 0.00046169 0.029407 -0.99957 0 255 0
0.015279 0.0025274 -0.0010941 2 0.02035 -0.13472 0.99068 0 255 0
0.017219 0.0034074 0.0008688 2 0.013386 0.27734 -0.96068 0 255 0
0.013079 0.0025174 -1.6899e-06 2 0.0085744 0.049591 -0.99873 0 255 0
0.016119 0.0023774 0.0010777 2 0.029556 0.58134 -0.81312 0 255 0
0.017019 0.0019774 -0.0010577 2 0.033204 0.24983 -0.96772 0 255 0
0.013539 0.0015074 0.0015976 2 -0.75807 -0.62909 -0.17198 0 255 0
0.017209 0.0038074 -0.0008116 2 0.0022388 0.056607 0.99839 0 255 0
0.014459 0.0015374 -0.0014421 2 0.048747 0.99736 -0.053903 0 255 0
0.017369 0.0025574 0.00096651 2 0.011489 -0.00024574 0.99993 0 255 0
0.014609 0.0028474 -0.00058909 2 0.0018147 -0.68578 -0.72781 0 255 0
0.016729 0.0041374 -0.0001391 2 0.071213 0.097406 0.99269 0 255 0
0.020029 0.0009274 -0.00082528 2 -0.0014815 0.05988 0.9982 0 255 0
0.017759 0.0044674 -0.0006725 2 -0.31898 -0.3569 -0.878 0 255 0
0.019909 0.0011074 0.00082022 2 0.023052 -0.010353 0.99968 0 255 0
0.020269 0.0047974 -0.0008188 2 -0.00041104 0.021546 -0.99977 0 255 0
0.021899 0.0024574 -0.00081079 2 -0.0046327 -0.055008 -0.99848 0 255 0
0.021529 0.00094741 0.00080522 2 0.0094132 -0.17744 0.98409 0 255 0
0.017559 0.0045474 0.0004348 2 0.019681 0.25083 -0.96783 0 255 0
0.017719 0.0007474 -0.00094928 2 0.0082161 0.050515 -0.99869 0 255 0
0.019419 0.0035774 -0.0008518 2 0.0016571 0.027315 -0.99963 0 255 0
0.019759 0.0055074 -0.0007399 2 0.046368 0.90227 -0.42866 0 255 0
0.019309 0.0026174 0.00079791 2 -0.021539 -0.39532 0.91829 0 255 0
0.018559 0.0040974 -0.0008569 2 0.016772 -0.34605 -0.93807 0 255 0
0.020189 0.0026474 0.00076731 2 0.00090877 0.06406 0.99795 0 255 0
0.018569 0.0010474 0.00088562 2 0.0050357 0.037368 -0.99929 0 255 0
0.021549 0.0039674 -0.0008083 2 0.0042875 0.024833 -0.99968 0 255 0
0.022329 0.0019274 0.00077561 2 0.00041218 0.030678 -0.99953 0 255 0
0.019579 0.0052474 0.0006811 2 0.011369 -0.34908 -0.93702 0 255 0
0.020689 0.0018374 0.00078511 2 0.011364 0.022935 0.99967 0 255 0
0.018839 0.0049874 -0.0007359 2 0.056368 0.98437 0.16684 0 255 0
0.020969 0.0030574 -0.0008158 2 0.0088375 0.056321 0.99837 0 255 0
0.021829 0.0033274 0.0007244 2 -0.91828 -0.39577 0.011166 0 255 0
0.021079 0.0028474 0.00074591 2 0.0098794 -0.17288 -0.98489 0 255 0
0.020429 0.0019474 -0.00082339 2 0.0036994 0.0692 0.9976 0 255 0
0.017909 0.0029174 -0.00093739 2 0.016352 0.041272 -0.99901 0 255 0
0.021179 0.0052974 0.0006629 2 0.016805 0.067226 -0.9976 0 255 0
0.018339 0.0024374 0.00086951 2 0.032093 0.027799 0.9991 0 255 0
0.021049 0.0010874 -0.00081258 2 -0.0029519 0.055951 0.99843 0 255 0
0.019769 0.0026874 -0.00083539 2 0.0062564 -0.88969 0.45652 0 255 0
0.019079 0.0020174 -0.00086889 2 -0.0071552 -0.31339 0.9496 0 255 0
0.020179 0.0039174 0.0007284 2 0.027091 0.58362 -0.81158 0 255 0
0.018849 0.0036074 0.0008028 2 0.014285 -0.4733 0.88078 0 255 0
0.021579 0.0053174 -0.0008046 2 -0.019704 -0.94266 -0.33318 0 255 0
0.018119 0.0053074 -0.0001377 2 0.020871 -0.96025 -0.27837 0 255 0
0.018709 0.0044874 0.0007499 2 -0.0087963 0.01597 -0.99983 0 255 0
0.018779 0.0029774 -0.0008915 2 -0.92295 -0.38365 -0.031152 0 255 0
0.022259 0.0033174 -0.0008116 2 0.0084048 0.16653 0.986 0 255 0
0.018389 0.0014474 -0.00090838 2 0.0089396 0.073319 0.99727 0 255 0
0.022129 0.0045874 0.0006822 2 0.0011461 -0.21899 0.97573 0 255 0
0.018719 0.0053474 0.0004982 2 0.042185 0.96502 0.25877 0 255 0
0.021009 0.0042074 0.0007021 2 0.019298 -0.95252 0.30386 0 255 0
0.017669 0.0010674 0.00095452 2 -0.91653 -0.39987 -0.0084379 0 255 0
0.020579 0.0039274 -0.0008237 2 0.041236 0.96911 0.24316 0 255 0
0.026599 0.0029874 -0.0008332 2 0.0068457 0.07071 0.99747 0 255 0
0.025329 0.0054674 0.0006589 2 0.034325 -0.57245 -0.81922 0 255 0
0.024719 0.0009774 -0.00083008 2 0.041198 0.5986 -0.79999 0 255 0
0.022729 0.0054474 -0.0008119 2 0.013772 -0.49335 -0.86972 0 255 0
0.023819 0.0011374 -0.00082508 2 0.014768 0.19913 -0.97986 0 255 0
0.024429 0.0049374 -0.0008199 2 -0.029073 0.21689 -0.97576 0 255 0
0.022869 0.0050774 0.0006671 2 0.0016473 0.0062665 -0.99998 0 255 0
0.026099 0.0027574 0.00075701 2 0.0090927 -0.27677 -0.96089 0 255 0
0.022739 0.0035074 0.0007212 2 -0.0017409 -0.022211 -0.99975 0 255 0
0.025259 0.0046674 -0.0008241 2 0.030861 0.37535 0.92637 0 255 0
0.023569 0.0029374 -0.00082019 2 -0.0018221 0.035856 0.99936 0 255 0
0.025199 0.0013574 0.00080562 2 0.042497 0.76269 -0.64537 0 255 0
0.024849 0.0030774 0.0007429 2 0.0063584 0.07816 0.99692 0 255 0
0.024679 0.0021974 0.00077391 2 0.054931 0.97004 -0.23667 0 255 0
0.026569 0.0014374 -0.00083688 2 0.030649 0.13007 0.99103 0 255 0
0.026889 0.0043674 -0.0008301 2 0.024154 0.054054 0.99825 0 255 0
0.023639 0.0039574 -0.0008186 2 0.020014 0.15662 0.98746 0 255 0
0.022619 0.0043774 -0.0008128 2 0.027587 0.30696 0.95132 0 255 0
0.025859 0.0039174 0.0007153 2 0.0041755 0.067424 0.99772 0 255 0
0.026899 0.0034674 0.0007325 2 0.023151 0.034768 0.99913 0 255 0
0.022849 0.0018774 -0.00081809 2 0.009853 -0.034895 0.99934 0 255 0
0.023799 0.0057174 -0.0008157 2 0.0080434 -0.82699 -0.56217 0 255 0
0.027419 0.0017274 -0.00083909 2 0.015229 -0.050076 -0.99863 0 255 0
0.022559 0.0010174 -0.00081728 2 0.0055068 0.068465 0.99764 0 255 0
0.024479 0.0029674 -0.0008244 2 0.021803 0.29905 0.95399 0 255 0
0.025269 0.0021074 -0.00083019 2 0.0041766 0.06542 0.99785 0 255 0
0.026239 0.0053374 -0.0008259 2 -0.0012415 0.038468 0.99926 0 255 0
0.024999 0.0042874 0.0007004 2 0.0085521 -0.94863 -0.31628 0 255 0
0.026119 0.0039274 -0.0008291 2 0 0 0 0 255 0
0.025499 0.0030874 -0.000829 2 -0.00029973 0.0085783 -0.99996 0 255 0
0.023449 0.0040874 0.000704 2 -0.002174 0.035576 0.99936 0 255 0
0.023449 0.0016974 0.00078851 2 -0.0011372 0.060293 0.99818 0 255 0
0.026979 0.0053074 0.0006661 2 -0.014412 -0.99858 -0.051228 0 255 0
0.024129 0.0046574 0.0006853 2 0.037827 0.95645 -0.28943 0 255 0
0.024939 0.0037574 -0.0008249 2 0.024904 0.07488 0.99688 0 255 0
0.024329 0.0020074 -0.00082559 2 -0.0061227 -0.99362 -0.11257 0 255 0
0.025899 0.0018974 0.00078791 2 -0.0068674 0.011373 -0.99991 0 255 0
0.027249 0.0013174 0.00081002 2 0.022478 0.12526 0.99187 0 255 0
0.023459 0.0026774 0.00075381 2 0.0025243 0.026043 -0.99966 0 255 0
0.023549 0.0048674 -0.0008164 2 0.040481 0.87753 -0.47782 0 255 0
0.027419 0.0055674 -0.0008284 2 0.010014 -0.94398 -0.32985 0 255 0
0.025999 0.00086741 0.00082472 2 -0.019398 -0.63532 0.77201 0 255 0
0.024339 0.0012674 0.00080632 2 0.010626 -0.010051 -0.99989 0 255 0
0.026259 0.0047974 0.0006839 2 -0.011382 0.01053 -0.99988 0 255 0
0.025619 0.0009174 -0.00083478 2 0.0049196 0.067018 0.99774 0 255 0
0.026829 0.0020874 0.00078221 2 -0.0039608 -0.44214 0.89694 0 255 0
0.028269 0.0010174 0.00082252 2 0.019515 0.38243 0.92378 0 255 0
0.027899 0.0043774 0.0007004 2 0.030869 0.51893 0.85426 0 255 0
0.028179 0.0046274 -0.0008332 2 -0.0017702 0.053982 0.99854 0 255 0
0.028679 0.0038674 -0.0008361 2 0.053122 0.52435 0.84984 0 255 0
0.031409 0.0047374 -0.0008345 2 0.008027 -0.40113 -0.91599 0 255 0
0.030189 0.0010774 -0.00084878 2 0.13765 0.010533 0.99042 0 255 0
0.030399 0.0046874 -0.0008358 2 0.024525 0.12157 0.99228 0 255 0
0.029199 0.0010774 0.00082122 2 -0.61755 0.76676 -0.17523 0 255 0
0.031789 0.0014774 0.00080661 2 0.0058996 0.01438 -0.99988 0 255 0
0.032009 0.0030374 -0.0008445 2 0.0031849 0.064772 0.9979 0 255 0
0.032129 0.0029474 0.00075221 2 0.0062241 0.051598 0.99865 0 255 0
0.029999 0.0042674 0.0007032 2 0.040629 0.54773 -0.83567 0 255 0
0.029509 0.0052974 -0.0008328 2 0.0016372 0.062627 0.99804 0 255 0
0.030869 0.0037074 -0.0008401 2 0.0048041 -0.54096 0.84104 0 255 0
0.032059 0.0015974 -0.00085019 2 0.0082638 -0.48701 -0.87336 0 255 0
0.027629 0.0029474 -0.00083649 2 0.013123 -0.55511 -0.83167 0 255 0
0.029079 0.0047874 0.0006848 2 0.010126 -0.034815 -0.99934 0 255 0
0.029949 0.0031374 -0.0008404 2 0.0096556 0.040291 -0.99914 0 255 0
0.028819 0.0035374 0.0007303 2 0.035781 0.59302 0.80439 0 255 0
0.032059 0.0046774 0.0006842 2 0.00757 0.072978 0.99731 0 255 0
0.031039 0.0023474 -0.00084559 2 0.027762 -0.5579 0.82945 0 255 0
0.030629 0.0056474 0.0006515 2 0.027251 -0.10295 0.99431 0 255 0
0.030449 0.0034074 0.0007347 2 0.0086033 0.073318 -0.99727 0 255 0
0.030359 0.0016774 0.00079911 2 0.0024177 0.056046 0.99843 0 255 0
0.030709 0.0025674 0.00076601 2 -0.012269 -0.05958 -0.99815 0 255 0
0.029099 0.0023074 -0.00084149 2 0.12682 0.25292 -0.95914 0 255 0
0.027929 0.0052874 0.0006673 2 0.031781 0.5882 -0.80809 0 255 0
0.029669 0.0024574 0.00076991 2 0.025382 0.074184 0.99692 0 255 0
0.028779 0.0026374 0.00076301 2 0.028509 0.022805 0.99933 0 255 0
0.031169 0.0047474 0.0006832 2 0.018563 -0.31446 -0.94909 0 255 0
0.027739 0.0029374 0.00075231 2 0.013771 -0.50585 -0.86251 0 255 0
0.029629 0.0039974 -0.000837 2 0.0078281 0.039798 -0.99918 0 255 0
0.031589 0.0037574 0.0007214 2 0.025312 0.60725 -0.79411 0 255 0
0.028139 0.0018974 0.00079011 2 -0.0070634 -0.48319 0.87549 0 255 0
0.030139 0.0019774 -0.00084529 2 0.055637 0.69573 0.71614 0 255 0
0.028829 0.0014574 -0.00084409 2 0.0043007 0.032047 -0.99948 0 255 0
0.031789 0.0039074 -0.0008394 2 -0.88366 -0.4506 0.12693 0 255 0
0.034339 0.0055574 0.0006447 2 0.00483 0.064341 0.99792 0 255 0
0.037269 0.00083742 0.00084262 2 0.001247 0.03353 -0.99944 0 255 0
0.037009 0.0043574 0.0006868 2 -0.00035561 -0.92598 0.37758 0 255 0
0.032719 0.0036274 0.0007244 2 0.039711 0.73367 -0.67835 0 255 0
0.036509 0.0051474 0.0006509 2 0.036772 -0.98465 -0.17063 0 255 0
0.033999 0.0038274 -0.0008381 2 0.018747 0.20465 -0.97866 0 255 0
0.035309 0.0040874 0.0006998 2 0.0014698 0.032065 -0.99948 0 255 0
0.037339 0.0054374 0.0006343 2 0.010438 -0.84733 0.53097 0 255 0
0.037009 0.00091742 -0.00086628 2 0.027073 -0.55368 0.83229 0 255 0
0.035529 0.0023074 0.00077671 2 0.069722 0.49555 -0.86578 0 255 0
0.034139 0.0016474 0.00080411 2 0.0014929 0.033431 -0.99944 0 255 0
0.033049 0.0046874 0.0006824 2 -0.0034457 -0.53507 0.8448 0 255 0
0.035139 0.0050874 0.0006611 2 0.118 -0.09865 0.9881 0 255 0
0.033579 0.0027974 0.00075521 2 0.017212 0.011072 -0.99979 0 255 0
0.034739 0.00075741 -0.00086488 2 0.0025384 -0.005438 0.99998 0 255 0
0.037209 0.0021074 -0.00085509 2 0.0032719 0.03167 -0.99949 0 255 0
0.035289 0.0014074 0.00081511 2 0.033276 0.6875 0.72542 0 255 0
0.033099 0.0024674 -0.00084779 2 -0.0023396 0.059123 0.99825 0 255 0
0.033999 0.0027374 -0.00084479 2 0.0047008 0.065092 0.99787 0 255 0
0.036269 0.0027674 -0.00084769 2 -0.0081737 -0.34199 0.93967 0 255 0
0.036549 0.0036674 -0.0008394 2 0.020564 -0.027353 -0.99941 0 255 0
0.034619 0.0027774 0.00075601 2 0.0020445 -0.80127 -0.5983 0 255 0
0.036479 0.0019174 0.00079401 2 0 0 0 0 255 0
0.032869 0.0040474 -0.0008384 2 0.011302 -0.26629 0.96383 0 255 0
0.036079 0.0012474 -0.00086208 2 0 0 0 0 255 0
0.032549 0.0051274 -0.000832 2 0.0066341 0.071714 0.9974 0 255 0
0.032969 0.0055674 0.0006479 2 0.0032981 -0.48464 0.87471 0 255 0
0.036299 0.0029674 0.00074881 2 0.030867 -0.060663 0.99768 0 255 0
0.032979 0.0013374 -0.00085388 2 -0.00033756 0.036178 0.99935 0 255 0
0.035749 0.0052874 -0.0008239 2 0.0037082 -0.17479 0.9846 0 255 0
0.033909 0.0042574 0.000697 2 0.0018612 -0.8206 -0.5715 0 255 0
0.032959 0.0021374 0.00078241 2 -0.010447 -0.36359 0.9315 0 255 0
0.036689 0.0049774 -0.0008222 2 0.0103 -0.079108 -0.99681 0 255 0
0.033769 0.0048774 -0.0008324 2 0.0050172 0.048253 -0.99882 0 255 0
0.035519 0.0034374 -0.0008403 2 0.045732 0.99895 -0.0035572 0 255 0
0.034949 0.0048474 -0.0008302 2 -0.086256 -0.1197 0.98906 0 255 0
0.034789 0.0020974 -0.00085209 2 0.0070116 0.072237 0.99736 0 255 0
0.035829 0.0042774 -0.0008325 2 0.020093 0.3881 0.9214 0 255 0
0.037329 0.0055774 -0.0008122 2 0.0018344 -0.12732 -0.99186 0 255 0
0.033959 0.0014374 -0.00085729 2 0.072431 -0.22143 0.97248 0 255 0
0.035439 0.0032074 0.0007378 2 0.053919 0.99772 0.04064 0 255 0
0.036179 0.0039174 0.0007079 2 0.015519 -0.93158 0.36321 0 255 0
0.039059 0.0054074 -0.0008099 2 0.051751 -0.91769 -0.39391 0 255 0
0.040879 0.0015374 0.00082061 2 -0.91202 -0.40673 0.052864 0 255 0
0.037679 0.0015974 0.00080851 2 0.035592 0.31602 0.94809 0 255 0
0.041739 0.0010474 -0.00088028 2 0.011157 -0.17744 -0.98407 0 255 0
0.038639 0.00090742 0.00084532 2 0.013602 -0.097842 -0.99511 0 255 0
0.037839 0.0036574 0.0007172 2 0.022577 -0.1633 0.98632 0 255 0
0.041499 0.0049474 -0.000809 2 -0.9191 -0.39398 0.0054511 0 255 0
0.039549 0.0014974 0.00082141 2 -0.005156 -0.51261 0.8586 0 255 0
0.038549 0.0031374 -0.0008432 2 -0.00205 -0.38212 0.92411 0 255 0
0.039849 0.0041074 0.0006895 2 -0.075151 -0.16324 0.98372 0 255 0
0.040039 0.0025374 -0.00085099 2 0.046949 0.92995 0.36469 0 255 0
0.041519 0.0047274 0.0006548 2 -0.0013021 0.036006 0.99935 0 255 0
0.042199 0.0019374 0.00080021 2 0.052034 0.9406 -0.3355 0 255 0
