ply
format ascii 1.0
comment author Paulo Abelha (p.abelha at abdn ac uk)
element vertex 726
property float x
property float y
property float z
property int segm
property float nx
property float ny
property float nz
property uchar red
property uchar green
property uchar blue
end_header
0.040344 0.00028855 -0.007549 2 0.094353 0.083718 -0.99201 0 255 0
0.039914 0.0013985 -0.0074828 2 0.099642 0.81773 -0.56691 0 255 0
0.037514 -0.00016145 -0.0073249 2 0.11389 0.045139 -0.99247 0 255 0
0.039884 0.0016785 -0.0061389 2 -0.12733 -0.54246 0.83038 0 255 0
0.038844 8.855e-05 -0.0060862 2 0.35774 -0.35816 -0.86241 0 255 0
0.040984 0.0042485 -0.005979 2 -0.22939 0.49416 0.83856 0 255 0
0.037154 0.0041285 -0.0070445 2 0.2813 0.21424 -0.9354 0 255 0
0.037174 0.0030285 -0.005767 2 -0.17349 0.24129 0.95482 0 255 0
0.037704 0.00025855 -0.00596 2 -0.36953 0.83988 -0.39754 0 255 0
0.046044 0.0032185 -0.0074297 2 0.098011 0.043522 -0.99423 0 255 0
0.045034 0.00085855 -0.0062918 2 0.10803 -0.30241 -0.94704 0 255 0
0.046944 0.0019786 -0.00622 2 0.20338 0.43231 0.87849 0 255 0
0.045224 0.0017785 -0.0075122 2 0.36245 0.44332 0.81982 0 255 0
0.042234 0.0011385 -0.0062604 2 -0.056849 -0.65585 0.75275 0 255 0
0.044414 0.0033085 -0.0074701 2 -0.06924 -0.15644 0.98526 0 255 0
0.046464 1.855e-05 -0.0075287 2 0.16753 -0.33288 -0.92797 0 255 0
0.043294 0.00036855 -0.0063296 2 -0.06976 0.45393 0.8883 0 255 0
0.044254 0.0012885 -0.0075627 2 0.31671 -0.055901 -0.94687 0 255 0
0.043154 0.0020185 -0.0075466 2 -0.043376 0.1948 -0.97988 0 255 0
0.045314 0.0041986 -0.0060725 2 0.35382 0.41865 0.83639 0 255 0
0.043964 0.0013685 -0.0062932 2 0.14854 -0.15516 -0.97666 0 255 0
0.043194 0.0043885 -0.006063 2 0.24515 0.58877 -0.77023 0 255 0
0.046894 0.0035086 -0.0061273 2 0.00090873 -0.99693 -0.07827 0 255 0
0.044874 0.0027086 -0.0062304 2 0.067334 -0.62412 -0.77842 0 255 0
0.043514 0.0023685 -0.006266 2 -0.017231 0.70094 -0.71301 0 255 0
0.042084 0.00053854 -0.0075761 2 0.56838 -0.051108 0.82118 0 255 0
0.045994 0.0013286 -0.0062585 2 0.14778 0.12465 -0.98113 0 255 0
0.044594 -0.00022145 -0.006316 2 -0.084404 -0.35117 0.9325 0 255 0
0.044144 4.8549e-05 -0.0076099 2 -0.098282 -0.50099 0.85986 0 255 0
0.046904 0.0012286 -0.0074746 2 -0.4726 -0.72462 -0.50157 0 255 0
0.045474 0.00074855 -0.0075395 2 -0.13871 0.5618 -0.81556 0 255 0
0.043034 0.0041085 -0.0073853 2 -0.003117 -0.49262 -0.87024 0 255 0
0.042704 0.0030485 -0.007498 2 0.10114 -0.84208 -0.52979 0 255 0
0.042374 0.0022785 -0.0062256 2 -0.11822 0.62085 0.77496 0 255 0
0.044004 0.0034486 -0.0061754 2 -0.28282 0.07872 -0.95594 0 255 0
0.043114 0.00075855 -0.0075899 2 -0.33399 0.07992 -0.93918 0 255 0
0.045984 0.00024855 -0.0062961 2 -0.36134 0.071003 0.92973 0 255 0
0.042254 -2.145e-05 -0.0062957 2 0.11153 0.71014 -0.69517 0 255 0
0.045874 0.0032186 -0.0061749 2 0.38246 -0.18127 0.90602 0 255 0
0.051354 0.0026786 -0.0058405 2 -0.33934 -0.37286 -0.86361 0 255 0
0.051434 0.0017986 -0.0070486 2 -0.032266 -0.26563 -0.96353 0 255 0
0.048234 0.0022286 -0.0061216 2 0.22314 0.19609 0.95486 0 255 0
0.051404 0.00070855 -0.0070904 2 -0.0093961 0.33472 -0.94227 0 255 0
0.049004 0.0015386 -0.0072989 2 -0.2189 -0.42518 0.87824 0 255 0
0.049214 0.0046286 -0.0058417 2 0.18318 0.34411 -0.92089 0 255 0
0.049254 0.0013886 -0.0060754 2 0.34666 -0.1573 -0.92471 0 255 0
0.052054 0.0045486 -0.0067771 2 0.12961 -0.56703 0.81344 0 255 0
0.051634 0.0028986 -0.0069855 2 -0.19955 -0.40521 0.89218 0 255 0
0.047844 0.00075856 -0.0062011 2 0.1849 -0.11327 -0.97621 0 255 0
0.048504 0.00041855 -0.0073807 2 -0.11376 0.12042 0.98618 0 255 0
0.049004 0.0044786 -0.0070984 2 -0.43649 -0.019407 0.8995 0 255 0
0.050094 0.0039686 -0.0058523 2 -0.015667 0.34661 0.93788 0 255 0
0.051424 0.00095855 -0.0058896 2 -0.074287 -0.59042 0.80367 0 255 0
0.050484 0.00016855 -0.0072146 2 -0.21051 -0.4912 0.84523 0 255 0
0.048834 0.0029286 -0.0072661 2 0.095343 -0.52728 -0.84432 0 255 0
0.050094 0.00027855 -0.0060497 2 -0.18642 -0.18261 0.96535 0 255 0
0.047544 0.0036486 -0.0073174 2 -0.069341 0.31942 0.94507 0 255 0
0.050104 0.0036686 -0.0070951 2 -0.24271 -0.30452 -0.92106 0 255 0
0.049844 0.0022386 -0.0072019 2 0.082732 -0.90856 -0.40948 0 255 0
0.047784 0.0018986 -0.0073927 2 0.24703 0.4003 0.88246 0 255 0
0.051374 -0.00036145 -0.0059082 2 0.099416 -0.84077 -0.53218 0 255 0
0.048944 0.00013856 -0.0061405 2 -0.0074628 -0.44855 0.89372 0 255 0
0.047094 -0.00016145 -0.0062715 2 -0.18605 -0.13491 0.97323 0 255 0
0.048374 0.0037186 -0.0060045 2 -0.013785 -0.34495 0.93852 0 255 0
0.049364 0.0028486 -0.0060174 2 -0.0061949 -0.99497 -0.10001 0 255 0
0.050724 0.0018086 -0.0059466 2 -0.43359 -0.14466 -0.88942 0 255 0
0.051524 0.0043786 -0.0056614 2 -0.42274 -0.70895 -0.56452 0 255 0
0.051184 0.0039286 -0.0069589 2 0.14406 -0.057185 -0.98792 0 255 0
0.050374 0.0012786 -0.0071875 2 0.071817 0.040805 -0.99658 0 255 0
0.052634 0.0013886 -0.0069032 2 0.15953 0.13943 0.9773 0 255 0
0.053684 0.0012386 -0.0067685 2 0.1074 0.6047 -0.78918 0 255 0
0.054604 0.00039856 -0.0055048 2 0.19297 0.26662 -0.94429 0 255 0
0.054124 0.0039286 -0.0053943 2 0.14982 -0.12794 -0.9804 0 255 0
0.056614 0.0012886 -0.0051511 2 -0.049237 -0.28906 0.95604 0 255 0
0.055064 0.0018186 -0.0065428 2 -0.28875 0.064604 0.95522 0 255 0
0.052194 -2.1448e-05 -0.0070035 2 -0.18421 -0.21829 0.95834 0 255 0
0.053174 0.0024686 -0.0056257 2 -0.26973 0.52506 -0.80719 0 255 0
0.052814 0.0039886 -0.0055478 2 0.045322 -0.26722 0.96257 0 255 0
0.055604 0.0040286 -0.006318 2 -0.062875 -0.40489 0.9122 0 255 0
0.056054 0.00051856 -0.0064156 2 0.15093 0.35141 -0.92397 0 255 0
0.056124 0.0019886 -0.0063569 2 0.1468 -0.48687 -0.86105 0 255 0
0.056954 0.0011586 -0.0062431 2 -0.048506 -0.49313 0.8686 0 255 0
0.054144 -2.1448e-05 -0.0067432 2 0.15135 0.11649 -0.98159 0 255 0
0.053824 0.0034486 -0.006662 2 0.14664 -0.042686 -0.98827 0 255 0
0.053284 0.00020855 -0.0056867 2 -0.25958 -0.56841 -0.78073 0 255 0
0.052834 0.0030086 -0.006823 2 -0.17808 0.30717 0.93485 0 255 0
0.055604 0.0018786 -0.0052946 2 0.064686 0.35236 -0.93363 0 255 0
0.055364 0.0038286 -0.0052072 2 -0.33483 0.14141 0.93161 0 255 0
0.054904 0.00074855 -0.0066055 2 0.022571 -0.053353 -0.99832 0 255 0
0.057024 0.0036186 -0.0049625 2 0.30487 -0.78979 -0.53225 0 255 0
0.053994 0.0023886 -0.0066897 2 -0.11586 0.016418 0.99313 0 255 0
0.055564 0.00081856 -0.0053349 2 -0.34993 -0.39498 -0.84943 0 255 0
0.053974 0.0012986 -0.0055672 2 -0.41335 0.28604 -0.86448 0 255 0
0.052404 0.0014086 -0.0057545 2 -0.23344 0.24179 0.94183 0 255 0
0.055304 0.0029686 -0.0064644 2 0.18621 -0.097443 -0.97767 0 255 0
0.056514 0.0026786 -0.0051212 2 0.17853 0.2522 -0.95106 0 255 0
0.054484 0.0024986 -0.0054549 2 0.19476 0.5027 -0.84224 0 255 0
0.058544 0.0036586 -0.0046934 2 -0.32462 0.001913 0.94584 0 255 0
0.057494 0.0028586 -0.0060969 2 -0.15151 0.28577 0.94624 0 255 0
0.060494 0.0026086 -0.0055224 2 -0.10958 -0.3247 0.93945 0 255 0
0.057424 0.0039386 -0.0060181 2 -0.19034 -0.30584 0.93286 0 255 0
0.061854 0.00036856 -0.0042019 2 -0.070982 0.0033481 0.99747 0 255 0
0.058814 0.0018986 -0.0058782 2 -0.14256 -0.29499 0.9448 0 255 0
0.057604 0.0026686 -0.0049467 2 0.15173 0.14928 -0.97708 0 255 0
0.059204 0.0034586 -0.0057308 2 0.013696 0.11806 -0.99291 0 255 0
0.061864 0.00076856 -0.0053029 2 -0.30521 0.0059478 0.95227 0 255 0
0.057544 -5.1446e-05 -0.005035 2 -0.00015608 -0.9451 0.32678 0 255 0
0.060544 -0.00015145 -0.0055844 2 0.1042 -0.76499 -0.63556 0 255 0
0.061324 0.0033586 -0.005315 2 -0.20499 -0.38491 -0.8999 0 255 0
0.060874 0.0017286 -0.004356 2 -0.0076281 0.52081 -0.85364 0 255 0
0.060334 0.0036886 -0.0054813 2 0.31537 0.059687 0.94709 0 255 0
0.062044 0.0027586 -0.0040862 2 -0.12589 -0.21095 0.96936 0 255 0
0.059634 0.0041386 -0.0044338 2 -0.12148 -0.28676 -0.95027 0 255 0
0.059494 -0.00022145 -0.0046609 2 0.13254 -0.59416 -0.79335 0 255 0
0.060674 0.00030856 -0.0044377 2 -0.23488 0.54748 0.80318 0 255 0
0.060244 0.0014886 -0.0056075 2 0.00065284 0.0083372 -0.99996 0 255 0
0.060844 0.0040386 -0.0042104 2 -0.086936 0.71482 0.69388 0 255 0
0.057834 -7.1446e-05 -0.0061225 2 0.094619 0.73683 -0.66943 0 255 0
0.059794 0.0024486 -0.0045403 2 0.083859 0.89657 -0.43489 0 255 0
0.059144 0.00035855 -0.0058613 2 0.15158 0.27164 -0.95039 0 255 0
0.059234 0.0011186 -0.0046894 2 -0.24241 -0.46536 0.85128 0 255 0
0.061734 0.0018786 -0.005296 2 -0.31257 -0.28072 0.90747 0 255 0
0.058034 0.0010786 -0.0049224 2 0.05193 -0.35852 0.93208 0 255 0
0.058574 0.0021886 -0.0047823 2 0.14022 -0.082966 -0.98664 0 255 0
0.064084 0.0041686 -0.0046262 2 0.063457 -0.27679 0.95883 0 255 0
0.065604 0.0019886 -0.0044345 2 0.15113 -0.64694 -0.74742 0 255 0
0.066914 0.00010856 -0.0030858 2 0.35057 -0.26761 0.89749 0 255 0
0.062764 0.00021856 -0.0051203 2 0.081018 0.27096 -0.95918 0 255 0
0.065584 0.00043855 -0.00339 2 -0.26546 0.045065 0.96307 0 255 0
0.064904 0.0011986 -0.0046169 2 -0.35323 -0.1014 0.93002 0 255 0
0.066534 0.0015386 -0.0042241 2 -0.027133 -0.03508 0.99902 0 255 0
0.063874 0.0013186 -0.0037389 2 0.40787 -0.074921 -0.90996 0 255 0
0.066314 0.0022286 -0.003164 2 -0.052882 0.84383 0.53399 0 255 0
0.063924 0.0031286 -0.0047687 2 0.31845 0.62107 -0.71614 0 255 0
0.066304 0.0033286 -0.0030965 2 0.85892 -0.46105 0.22291 0 255 0
0.063224 0.0041086 -0.0037012 2 0.40622 0.20574 0.89031 0 255 0
0.062914 0.0020386 -0.0050311 2 -0.0083866 0.11399 0.99345 0 255 0
0.064984 0.0032086 -0.0045235 2 -0.34905 0.19141 0.91735 0 255 0
0.065594 0.0043686 -0.0042693 2 -0.28311 0.50395 0.81602 0 255 0
0.063574 0.00093856 -0.00492 2 -0.028943 0.91638 0.39925 0 255 0
0.062484 0.0017886 -0.0040228 2 -0.12181 0.13707 0.98304 0 255 0
0.064614 8.8556e-05 -0.0047142 2 0.1544 -0.085095 -0.98434 0 255 0
0.065024 0.0014786 -0.003488 2 0.27978 -0.19018 -0.94104 0 255 0
0.063044 0.00055856 -0.0039406 2 -0.35221 0.28543 0.89133 0 255 0
0.064354 0.0039486 -0.0034767 2 0.3002 -0.26506 -0.91631 0 255 0
0.065814 0.0044786 -0.0030978 2 0.38681 0.089332 0.91782 0 255 0
0.063634 0.0030486 -0.0037221 2 0.030807 -0.17094 0.9848 0 255 0
0.064094 0.00028856 -0.0037225 2 0.32885 -0.2815 -0.90145 0 255 0
0.066204 0.0029786 -0.0042593 2 0.15342 -0.17749 -0.97209 0 255 0
0.062234 0.0039886 -0.0050548 2 -0.079441 -0.033509 -0.99628 0 255 0
0.065014 0.0027186 -0.0034526 2 -0.087974 0.53968 0.83726 0 255 0
0.068424 0.00033856 -0.0038065 2 0.052573 0.97092 -0.23357 0 255 0
0.069724 0.0011886 -0.0023758 2 -0.35323 -0.37815 -0.85571 0 255 0
0.069204 0.0030486 -0.0024258 2 -0.09364 -0.4393 0.89345 0 255 0
0.067234 0.0026086 -0.0040248 2 -0.27 -0.42059 0.86614 0 255 0
0.070114 0.0035786 -0.0021418 2 -0.097934 0.5074 0.85613 0 255 0
0.067414 0.0031586 -0.0028478 2 0.1551 0.0030015 -0.98789 0 255 0
0.068684 0.00027856 -0.0026648 2 -0.0056061 -0.10382 0.99458 0 255 0
0.070714 0.00084856 -0.0032133 2 -0.11073 -0.066426 0.99163 0 255 0
0.068164 0.0014886 -0.0027528 2 0.19689 0.027538 -0.98004 0 255 0
0.069254 0.0010586 -0.0035811 2 -0.11019 -0.21324 0.97077 0 255 0
0.067254 0.00065856 -0.0040768 2 -0.073826 0.55844 0.82625 0 255 0
0.070024 -7.144e-05 -0.0023268 2 0.28745 -0.49748 0.81847 0 255 0
0.067364 0.0040686 -0.0038724 2 -0.65509 -0.033957 0.75478 0 255 0
0.068214 0.0031386 -0.003756 2 -0.061565 0.21702 -0.97422 0 255 0
0.071064 0.0031186 -0.0030328 2 -0.24092 0.15278 0.95844 0 255 0
0.069094 0.0041286 -0.0034454 2 0.16786 0.22748 -0.95921 0 255 0
0.071034 0.00076857 -0.0020528 2 0.15729 0.1045 -0.98201 0 255 0
0.069884 0.0033386 -0.0033162 2 0.15791 0.17821 -0.97124 0 255 0
0.072004 -0.00010144 -0.0018198 2 -0.17902 -0.54514 0.81901 0 255 0
0.070674 0.0021286 -0.0031871 2 0.10967 0.78174 -0.61388 0 255 0
0.069074 0.0024486 -0.0035874 2 0.29253 0.2578 -0.92085 0 255 0
0.071084 0.0021786 -0.0020008 2 0.15277 -0.026307 -0.98791 0 255 0
0.068094 0.0019686 -0.0038374 2 0.15322 0.12016 -0.98086 0 255 0
0.071944 0.0025286 -0.0028498 2 0.0207 0.99122 0.13057 0 255 0
0.071934 0.0037886 -0.0027448 2 0.16054 0.20998 -0.96443 0 255 0
0.070694 0.0043186 -0.0030128 2 0.304 0.2022 -0.93097 0 255 0
0.069784 -0.00010144 -0.0034683 2 0.15486 0.34005 -0.92757 0 255 0
0.068194 0.0039986 -0.0025848 2 0.15751 0.054124 -0.98603 0 255 0
0.071164 0.0032386 -0.0019018 2 -0.83351 -0.0026912 0.5525 0 255 0
0.071234 0.0043486 -0.0017848 2 -0.18807 -0.6165 -0.76456 0 255 0
0.072464 -0.00028143 -0.0027698 2 0.38655 -0.19731 0.90091 0 255 0
0.075704 8.5619e-06 -0.0018928 2 0.1558 -0.43629 0.88621 0 255 0
0.076664 0.0016486 -0.00047685 2 0.093216 -0.88849 -0.44933 0 255 0
0.075524 0.0041786 -0.0017328 2 -0.13099 -0.23484 0.96317 0 255 0
0.072114 0.0036686 -0.0016218 2 -0.2118 -0.09649 0.97254 0 255 0
0.072174 0.0014386 -0.0028198 2 -0.33872 0.21296 0.91647 0 255 0
0.074504 0.0035286 -0.0020718 2 0.047617 0.99565 -0.080146 0 255 0
0.074604 -1.4386e-06 -0.0021948 2 -0.83343 0.0010772 0.55262 0 255 0
0.072104 0.0019886 -0.0017448 2 0.021212 0.52282 -0.85218 0 255 0
0.073394 0.0011086 -0.0014178 2 0.15647 0.16665 0.97352 0 255 0
0.076824 0.0027586 -0.00036686 2 0.081091 -0.8245 -0.56002 0 255 0
0.075714 0.0014886 -0.0018548 2 -0.098774 0.61913 -0.77905 0 255 0
0.076764 -7.1437e-05 -0.00048285 2 0.15848 -0.020659 -0.98715 0 255 0
0.076844 0.00088856 -0.0015468 2 0.41242 0.043846 0.90994 0 255 0
0.073224 0.0025186 -0.0014218 2 -0.31741 -0.028686 0.94785 0 255 0
0.075634 0.0026986 -0.0018338 2 0.075366 -0.36011 0.92986 0 255 0
0.074934 0.00054856 -0.0010048 2 0.14291 -0.49088 -0.85942 0 255 0
0.073204 0.0026886 -0.0025048 2 -0.2319 -0.45227 0.8612 0 255 0
0.073594 0.0043186 -0.0011548 2 0.24354 -0.50586 0.82752 0 255 0
0.073254 0.00054856 -0.0025528 2 -0.1565 -0.041339 0.98681 0 255 0
0.075974 0.00082856 -0.00070285 2 -0.28677 0.2783 0.91668 0 255 0
0.074574 0.0017186 -0.0021608 2 0.19618 -0.56203 -0.80351 0 255 0
0.074014 -0.00029144 -0.0012598 2 0.34909 -0.093466 -0.93242 0 255 0
0.076964 -0.00017144 -0.0015228 2 0.29068 0.49651 -0.81792 0 255 0
0.076464 0.0040986 -0.00035986 2 0.26065 -0.21913 0.94023 0 255 0
0.074514 0.0018686 -0.0010878 2 0.10038 -0.43957 0.89258 0 255 0
0.074324 0.0031086 -0.0010608 2 0.025636 0.98111 0.19174 0 255 0
0.076734 0.0027886 -0.0015038 2 -0.26573 -0.14262 0.95344 0 255 0
0.075644 0.0022586 -0.00076486 2 -0.21926 0.37387 0.90119 0 255 0
0.075574 0.0035886 -0.00067086 2 -0.26819 -0.11858 0.95604 0 255 0
0.073204 0.0038386 -0.0024008 2 -0.060276 0.65506 0.75317 0 255 0
0.080984 0.0044986 -7.0859e-05 2 0.50443 0.41944 -0.75473 0 255 0
0.080714 0.00010856 -0.00041085 2 -0.01978 -0.97236 0.23263 0 255 0
0.078214 0.0023486 2.2143e-05 2 -0.32821 -0.39196 -0.85945 0 255 0
0.077144 0.0042186 -0.0012608 2 -0.23858 0.40506 0.88261 0 255 0
0.077804 0.0014186 -0.0012548 2 0.33485 -0.81503 -0.47286 0 255 0
0.078154 0.0029186 -0.0010768 2 -0.11751 -0.2832 0.95183 0 255 0
0.081044 0.0017386 -0.00027085 2 0.013733 -0.99873 0.048456 0 255 0
0.079654 0.0010786 -0.00071485 2 -0.22265 -0.10399 0.96934 0 255 0
0.081904 0.0025185 0.0012242 2 -0.28622 -0.093738 0.95357 0 255 0
0.080514 0.0033586 -0.00033086 2 0.26576 0.35219 -0.8974 0 255 0
0.080834 0.0040686 0.0010082 2 -0.039235 0.7928 0.60822 0 255 0
0.079984 0.0033986 0.00066514 2 0.32434 0.17754 -0.92913 0 255 0
0.078324 -0.00010143 -1.0854e-05 2 0.090507 -0.45891 -0.88386 0 255 0
0.079464 0.0021586 -0.00074486 2 -0.11098 -0.30237 0.94671 0 255 0
0.077604 0.0012486 -0.00020285 2 -0.017485 0.75057 0.66056 0 255 0
0.077344 0.0045886 -4.086e-05 2 -0.13037 0.21786 0.96723 0 255 0
0.077524 0.0035186 -8.7858e-05 2 -0.16939 -0.40775 0.89725 0 255 0
0.080634 0.00022856 0.00072615 2 0.21663 -0.17409 -0.96061 0 255 0
0.078864 0.0014186 0.00018115 2 -0.00074789 -0.99831 0.058026 0 255 0
0.080314 0.0014186 0.00064915 2 -0.29864 0.48447 0.82225 0 255 0
0.079574 0.00029856 0.00038415 2 0.1619 0.12834 -0.97843 0 255 0
0.079394 0.0025186 0.00040414 2 0.10651 -0.36655 -0.92428 0 255 0
0.078854 0.0040086 0.00035014 2 -0.18193 -0.25065 0.95083 0 255 0
0.081854 0.0038386 0.00012214 2 -0.051126 -0.47311 0.87952 0 255 0
0.078164 0.0039986 -0.00098386 2 0.13209 -0.50202 -0.85471 0 255 0
0.079744 -0.00020144 -0.00070085 2 0.081856 -0.66288 -0.74424 0 255 0
0.080844 0.0025686 0.00087914 2 0.097595 0.37168 0.92322 0 255 0
0.079104 0.0035786 -0.00074386 2 -0.27251 0.056392 0.9605 0 255 0
0.078124 0.00035857 -0.0011848 2 0.26363 -0.5611 -0.78464 0 255 0
0.082724 0.00040857 0.00022615 2 -0.19097 -0.52882 0.82697 0 255 0
0.085954 0.0037985 0.0014862 2 -0.11044 -0.23098 0.96667 0 255 0
0.083654 0.00070857 0.0017582 2 0.057212 0.53462 0.84315 0 255 0
0.085584 0.0022885 0.0025172 2 -0.29792 0.047405 -0.95341 0 255 0
0.084034 0.00015857 0.00064515 2 -0.446 -0.4319 -0.78393 0 255 0
0.082454 0.0034585 0.0014902 2 -0.22055 0.47796 0.85024 0 255 0
0.085944 0.0017085 0.0013142 2 -0.29795 0.021942 -0.95433 0 255 0
0.086674 -0.00012144 0.0015342 2 -0.29433 0.38508 -0.87469 0 255 0
0.084274 0.0038085 0.00090714 2 0.0532 -0.99843 -0.017678 0 255 0
0.084314 0.0018485 0.00077214 2 0.003456 0.038039 -0.99927 0 255 0
0.087044 0.0025785 0.0017472 2 0.1097 0.75157 -0.65047 0 255 0
0.086854 5.8569e-05 0.0029142 2 -0.22791 0.16331 0.95989 0 255 0
0.084644 0.00096857 0.0021132 2 -0.35344 -0.28374 -0.89139 0 255 0
0.085034 -0.00029143 0.00098315 2 0.12389 -0.67863 -0.72396 0 255 0
0.083244 0.0018885 0.0016472 2 0.23244 -0.28265 -0.93064 0 255 0
0.084624 0.0039885 0.0023152 2 -0.16948 0.16507 0.97161 0 255 0
0.086964 0.0040285 0.0018582 2 0.029951 0.11244 -0.99321 0 255 0
0.083084 0.0031285 0.00046714 2 -0.26198 -0.27686 0.92451 0 255 0
0.086344 0.0013885 0.0027482 2 0.011972 -0.93119 0.36434 0 255 0
0.082084 0.0022486 7.3143e-05 2 0.25374 0.28764 -0.92352 0 255 0
0.083524 0.0034485 0.0018602 2 -0.19518 0.027439 0.98038 0 255 0
0.082534 0.00021857 0.0013602 2 -0.2459 -0.45879 0.85384 0 255 0
0.086564 0.0035585 0.0029952 2 0.24933 0.47723 -0.84266 0 255 0
0.082304 0.0013785 0.0013052 2 0.11005 -0.79652 -0.59452 0 255 0
0.083824 -0.00035143 0.0018172 2 0.14583 0.4369 -0.88761 0 255 0
0.085584 0.0034285 0.0026102 2 -0.22639 0.13038 0.96527 0 255 0
0.083454 0.0011385 0.00047915 2 0.088251 0.10397 -0.99066 0 255 0
0.085014 0.0028585 0.0010752 2 0.13867 -0.49771 -0.85619 0 255 0
0.084314 0.0025885 0.0020702 2 -0.078767 0.92376 -0.3748 0 255 0
0.086864 0.0024185 0.0030002 2 -0.16075 0.067688 0.98467 0 255 0
0.085064 0.0010685 0.0010032 2 0.19726 -0.49968 -0.84345 0 255 0
0.091164 0.0044285 0.0034602 2 0.075952 -0.92939 -0.36121 0 255 0
0.091314 -0.00031143 0.0032372 2 0.13897 0.50747 -0.85039 0 255 0
0.087954 0.0035885 0.0021552 2 -0.26767 -0.037047 0.9628 0 255 0
0.091104 -0.00029143 0.0046102 2 0.49417 0.056459 0.86753 0 255 0
0.087954 0.00052857 0.0019832 2 -0.28544 -0.050979 -0.95704 0 255 0
0.091274 0.0026185 0.0047712 2 -0.29613 0.36537 0.8825 0 255 0
0.089584 0.0024585 0.0026462 2 -0.122 0.25849 0.95828 0 255 0
0.090724 0.0041085 0.0047022 2 -0.079205 -0.73435 -0.67413 0 255 0
0.087794 0.0019885 0.0033422 2 0.2544 -0.24526 -0.93548 0 255 0
0.087404 0.0014785 0.0018082 2 -0.092243 -0.54577 0.83284 0 255 0
0.089294 0.00058857 0.0024632 2 0.10421 -0.10958 -0.9885 0 255 0
0.089754 0.0019785 0.0041182 2 0.094574 -0.42286 0.90124 0 255 0
0.091824 0.0015885 0.0049252 2 -0.065873 0.2039 0.97677 0 255 0
0.087864 0.0032285 0.0034582 2 0.1563 0.22809 -0.96101 0 255 0
0.091864 0.0021685 0.0035182 2 -0.13008 0.18424 0.97424 0 255 0
0.090504 0.0012385 0.0029332 2 0.072458 -0.083237 -0.99389 0 255 0
0.088264 0.00044857 0.0034712 2 0.14059 -0.43151 -0.89108 0 255 0
0.089454 0.0030985 0.0040812 2 -0.26455 0.31325 0.91208 0 255 0
0.091704 0.00091857 0.0034062 2 -0.15668 0.54065 -0.82653 0 255 0
0.090844 0.0013185 0.0045222 2 -0.045834 -0.041972 -0.99807 0 255 0
0.090414 0.00012857 0.0028842 2 -0.18175 0.29798 0.93711 0 255 0
0.090584 0.0029885 0.0030732 2 0.23247 -0.33721 0.91228 0 255 0
0.089054 0.0039485 0.0025892 2 0.14131 -0.26083 -0.95499 0 255 0
0.089814 0.00049857 0.0040902 2 -0.30072 -0.49912 -0.81268 0 255 0
0.088714 0.0019785 0.0023052 2 0.0079644 -0.54345 0.8394 0 255 0
0.091954 0.0038085 0.0051542 2 -0.1225 0.05915 0.9907 0 255 0
0.088794 0.0017885 0.0037242 2 0.0427 -0.996 -0.078531 0 255 0
0.093694 0.0032885 0.0045442 2 0.16868 -0.090349 -0.98152 0 255 0
0.094354 0.00064857 0.0049202 2 -0.12437 -0.094389 0.98774 0 255 0
0.094034 0.0019685 0.0056632 2 -0.22799 0.16646 0.95933 0 255 0
0.093764 0.0019585 0.0044692 2 -0.15635 -0.086398 0.98391 0 255 0
0.092764 0.0043085 0.0041352 2 0.18233 -0.045565 0.98218 0 255 0
0.092164 0.0033585 0.0037632 2 0.26204 0.43469 0.86161 0 255 0
0.093324 0.00041857 0.0041612 2 -0.30597 -0.061225 0.95007 0 255 0
0.093214 -9.1427e-05 0.0053862 2 0.29655 0.15868 -0.94174 0 255 0
0.093054 0.0012885 0.0053732 2 0.33633 0.34267 0.87719 0 255 0
0.092244 0.00025857 0.0050472 2 0.095471 0.18869 -0.97739 0 255 0
0.092364 0.0025085 0.0051862 2 -0.29084 0.22973 0.92878 0 255 0
0.093544 0.0031085 0.0056512 2 0.28238 -0.07601 0.95629 0 255 0
0.092974 0.0041285 0.0055772 2 0.16107 0.018028 -0.98678 0 255 0
0.092724 0.0013985 0.0038572 2 -0.0032475 -0.99774 -0.067063 0 255 0
0.040074 0.0092485 -0.006342 2 0.14961 -0.06994 -0.98627 0 255 0
0.038234 0.0077485 -0.0065292 2 0.14118 -0.2811 -0.94924 0 255 0
0.040174 0.0084885 -0.0051373 2 0.10126 0.83528 -0.54042 0 255 0
0.037314 0.0070285 -0.005152 2 -0.11486 0.21161 0.97058 0 255 0
0.041624 0.0053285 -0.0058843 2 -0.68726 -0.16635 0.70711 0 255 0
0.039754 0.0073285 -0.0067636 2 0.2797 0.163 -0.94615 0 255 0
0.040564 0.0057085 -0.0071371 2 0.31921 -0.25821 -0.91183 0 255 0
0.037454 0.0056885 -0.0054369 2 -0.20684 -0.51366 0.83269 0 255 0
0.040844 0.0066985 -0.005583 2 -0.35195 -0.17302 -0.91989 0 255 0
0.039414 0.0067185 -0.0054658 2 0.6426 -0.42587 -0.63695 0 255 0
0.038494 0.0065085 -0.0068025 2 -0.19968 -0.1724 0.96458 0 255 0
0.041674 0.0086685 -0.006588 2 -0.22858 -0.34196 0.91149 0 255 0
0.041454 0.0085085 -0.0052178 2 -0.11165 0.44229 0.8899 0 255 0
0.039854 0.0048085 -0.0058564 2 0.19896 -0.56097 0.80357 0 255 0
0.037324 0.0085585 -0.0062265 2 0.13817 0.36075 -0.92237 0 255 0
0.038014 0.0094785 -0.0060396 2 -0.18887 -0.16668 -0.96775 0 255 0
0.038604 0.0057585 -0.0055618 2 -0.036495 0.32435 -0.94523 0 255 0
0.039274 0.0078185 -0.0052283 2 -0.14989 -0.074618 -0.98588 0 255 0
0.038644 0.0091185 -0.0047697 2 -0.024261 0.9328 0.35956 0 255 0
0.037694 0.0082185 -0.0048999 2 0.24939 -0.26077 -0.93263 0 255 0
0.037794 0.0046885 -0.0056438 2 0.14817 -0.30049 -0.94221 0 255 0
0.041784 0.0065385 -0.0070177 2 -0.33655 0.34367 0.87671 0 255 0
0.039204 0.0083585 -0.0064968 2 0.38123 0.22774 0.89599 0 255 0
0.040034 0.0095585 -0.0048214 2 0.085858 -0.095588 0.99171 0 255 0
0.038644 0.0053285 -0.0070353 2 0.14509 -0.012602 -0.98934 0 255 0
0.040814 0.0070485 -0.0068824 2 0.36282 0.92758 -0.089205 0 255 0
0.040544 0.0081585 -0.0066496 2 0.010835 0.99541 0.095113 0 255 0
0.037624 0.0057285 -0.0068737 2 -0.13133 -0.51978 0.84414 0 255 0
0.043834 0.0083586 -0.0053916 2 -0.23479 -0.35423 0.9052 0 255 0
0.043844 0.0072586 -0.0056073 2 0.035703 -0.99936 -0.0032245 0 255 0
0.042544 0.0077986 -0.0054584 2 -0.26104 0.080919 -0.96193 0 255 0
0.044074 0.0096085 -0.0064093 2 0.1285 0.55048 -0.8249 0 255 0
0.046794 0.0084586 -0.0053574 2 -0.24114 0.033978 -0.96989 0 255 0
0.044384 0.0046886 -0.0060285 2 -0.23141 -0.38873 0.89182 0 255 0
0.046214 0.0067586 -0.0069779 2 0.069524 0.39238 0.91717 0 255 0
0.046084 0.0068386 -0.005676 2 0.41313 0.085135 0.90668 0 255 0
0.042884 0.0055785 -0.0072127 2 0.13054 -0.26416 0.95561 0 255 0
0.045904 0.0052086 -0.0059505 2 -0.048565 0.1206 0.99151 0 255 0
0.042414 0.0094585 -0.0063978 2 0.27009 0.2921 -0.91746 0 255 0
0.043984 0.0063385 -0.0071139 2 -0.069462 -0.41599 0.90671 0 255 0
0.044924 0.0070985 -0.006941 2 0.12434 -0.67427 -0.72795 0 255 0
0.044904 0.0088286 -0.0065993 2 0.15455 -0.14766 -0.97689 0 255 0
0.044354 0.0095686 -0.0050513 2 -0.11371 -0.51385 0.85031 0 255 0
0.042584 0.0072785 -0.0068987 2 -0.20948 -0.067317 0.97549 0 255 0
0.046024 0.0082286 -0.0066947 2 -0.058858 -0.26621 -0.96212 0 255 0
0.046844 0.0046786 -0.0059965 2 -0.11728 -0.29112 0.94947 0 255 0
0.043174 0.0081685 -0.0067438 2 0.034809 0.9967 0.073308 0 255 0
0.047014 0.0047986 -0.007222 2 -0.013243 0.011446 0.99985 0 255 0
0.044264 0.0079185 -0.0067931 2 0.26597 0.28642 -0.92045 0 255 0
0.045204 0.0055285 -0.0071935 2 -0.097014 -0.1662 0.98131 0 255 0
0.043214 0.0093886 -0.0050869 2 -0.12106 -0.083446 0.98913 0 255 0
0.044204 0.0050285 -0.0072801 2 -0.11726 0.26671 0.95662 0 255 0
0.042184 0.0095986 -0.0049541 2 -0.078359 -0.27859 0.95721 0 255 0
0.042604 0.0062585 -0.0057667 2 -0.30221 -0.059757 -0.95137 0 255 0
0.045774 0.0046385 -0.0072786 2 0.24746 0.51623 -0.81992 0 255 0
0.045694 0.0082386 -0.0054055 2 0.41044 -0.10523 0.9058 0 255 0
0.044934 0.0072286 -0.0056048 2 0.10726 -0.80995 -0.5766 0 255 0
0.044604 0.0060786 -0.0058369 2 0.033868 0.36478 -0.93048 0 255 0
0.047014 0.0077686 -0.006763 2 0.15933 -0.25748 -0.95306 0 255 0
0.046264 0.0056786 -0.0071461 2 -0.11956 -0.18699 -0.97506 0 255 0
0.048194 0.0082886 -0.0065803 2 0.1102 0.22779 -0.96745 0 255 0
0.051074 0.0053186 -0.0068193 2 0.32658 -0.35219 -0.8771 0 255 0
0.050484 0.0091686 -0.0062301 2 -0.20493 -0.63831 -0.742 0 255 0
0.048674 0.0093686 -0.0063303 2 0.39208 -0.50568 -0.76848 0 255 0
0.047854 0.0071186 -0.0055605 2 -0.31526 0.31275 0.89599 0 255 0
0.049164 0.0085186 -0.0052021 2 0.35986 0.028201 0.93258 0 255 0
0.052024 0.0088986 -0.0048588 2 -0.13857 0.5159 -0.84537 0 255 0
0.050294 0.0084686 -0.0051376 2 0.42127 -0.0015627 0.90694 0 255 0
0.049164 0.0056086 -0.0069598 2 -0.24764 -0.052526 0.96743 0 255 0
0.051444 0.0073586 -0.0052282 2 0.13298 0.52294 -0.84193 0 255 0
0.047654 0.0056186 -0.0058426 2 0.1426 0.48805 -0.86109 0 255 0
0.049084 0.0070986 -0.0054832 2 0.12021 0.019633 -0.99255 0 255 0
0.047494 0.0095886 -0.0050216 2 -0.063552 0.45331 0.88909 0 255 0
0.047924 0.0067686 -0.0068985 2 -0.12394 -0.19469 0.973 0 255 0
0.051634 0.0093986 -0.0060518 2 -0.32915 -0.38658 -0.86152 0 255 0
0.049294 0.0084886 -0.0064542 2 -0.26274 0.10331 0.95932 0 255 0
0.051384 0.0083886 -0.0062757 2 -0.080597 -0.39218 0.91635 0 255 0
0.047564 0.0092786 -0.006434 2 0.37997 -0.31896 0.86827 0 255 0
0.050664 0.0050986 -0.0056846 2 0.19753 0.27485 -0.94098 0 255 0
0.051694 0.0069386 -0.0065138 2 -0.049818 0.0039163 0.99875 0 255 0
0.048084 0.0081786 -0.0053383 2 0.31154 -0.3826 -0.8698 0 255 0
0.051834 0.0061586 -0.0054111 2 0.052482 0.98352 -0.17302 0 255 0
0.050714 0.0075786 -0.0065169 2 0.14527 0.011384 -0.98933 0 255 0
0.048994 0.0067586 -0.0068132 2 -0.057805 0.61558 0.78595 0 255 0
0.049614 0.0095886 -0.0048927 2 0.12332 0.71189 -0.69138 0 255 0
0.048974 0.0059686 -0.0057064 2 -0.19214 -0.084371 0.97773 0 255 0
0.050794 0.0062486 -0.0055198 2 0.096421 -0.42246 0.90124 0 255 0
0.050124 0.0063786 -0.0067936 2 -0.31112 0.5478 -0.77661 0 255 0
0.047764 0.0055386 -0.0070861 2 0.14879 0.26675 -0.95221 0 255 0
0.050154 0.0073286 -0.0053659 2 -0.37123 -0.01039 0.92848 0 255 0
0.050074 0.0049486 -0.0069562 2 -0.0021982 -0.59944 0.80042 0 255 0
0.056364 0.0089286 -0.0042479 2 -0.29005 0.29808 -0.9094 0 255 0
0.052444 0.0085086 -0.0061173 2 0.18635 -0.6514 -0.73549 0 255 0
0.055124 0.0067786 -0.0060733 2 0.1175 0.76681 -0.63103 0 255 0
0.054114 0.0091786 -0.0057792 2 -0.007497 0.92552 0.37863 0 255 0
0.052424 0.0050286 -0.0054816 2 0.11113 -0.79869 -0.59139 0 255 0
0.055894 0.0080286 -0.0057099 2 -0.26237 0.041465 0.96408 0 255 0
0.054084 0.0065486 -0.0062784 2 0.14438 0.47363 -0.86881 0 255 0
0.054214 0.0073286 -0.0049075 2 -0.16233 -0.093612 0.98229 0 255 0
0.055454 0.0076386 -0.004651 2 -0.42676 -0.72119 -0.54567 0 255 0
0.053214 0.0082886 -0.0048438 2 -0.32351 0.80264 -0.50111 0 255 0
0.055644 0.0065086 -0.0048316 2 0.026603 0.40752 0.91281 0 255 0
0.056774 0.0062886 -0.0046903 2 -0.1169 -0.25981 0.95856 0 255 0
0.052764 0.0066986 -0.0051956 2 0.12321 -0.45283 -0.88304 0 255 0
0.053294 0.0050386 -0.0065605 2 -0.20838 -0.27907 0.93739 0 255 0
0.056094 0.0055086 -0.0049118 2 0.15005 -0.10701 -0.98287 0 255 0
0.056524 0.0048886 -0.006069 2 -0.12464 -0.59725 0.79231 0 255 0
0.053034 0.0074086 -0.0062491 2 0.1763 0.035248 0.98371 0 255 0
0.054614 0.0091186 -0.0044794 2 -0.17697 -0.15729 0.97157 0 255 0
0.053984 0.0059486 -0.0051928 2 0.14728 0.24947 -0.95712 0 255 0
0.056064 0.0090786 -0.005483 2 0.1259 0.13331 -0.98304 0 255 0
0.056054 0.0060586 -0.0060243 2 -0.007943 0.30612 0.95196 0 255 0
0.052424 0.0058786 -0.0065825 2 -0.058627 0.037136 -0.99759 0 255 0
0.055094 0.0049986 -0.0063011 2 -0.20616 -0.24144 0.94826 0 255 0
0.054984 0.0049386 -0.0051486 2 0.15583 -0.41834 -0.89483 0 255 0
0.054554 0.0078786 -0.0059621 2 -0.20143 0.61222 0.7646 0 255 0
0.056764 0.0069586 -0.0057593 2 0.085055 -0.048703 -0.99519 0 255 0
0.057014 0.0083986 -0.0054527 2 -0.33453 -0.45907 -0.82301 0 255 0
0.059134 0.0085486 -0.0050281 2 -0.83426 -0.0013326 0.55136 0 255 0
0.060934 0.0062986 -0.0039145 2 0.14269 -0.31377 -0.93872 0 255 0
0.058304 0.0048686 -0.0057638 2 -0.067205 -0.097055 0.99301 0 255 0
0.057984 0.0079586 -0.0053666 2 -0.36255 0.22743 0.90379 0 255 0
0.060494 0.0087486 -0.0047246 2 -0.37612 -0.55735 0.7402 0 255 0
0.058444 0.0067786 -0.0054918 2 -0.038517 -0.32176 0.94604 0 255 0
0.057264 0.0048986 -0.0047877 2 -0.07944 0.66432 0.74321 0 255 0
0.057584 0.0075186 -0.0043333 2 -0.3283 -0.16078 0.93079 0 255 0
0.061074 0.0078386 -0.0047728 2 0.34922 -0.20059 0.91532 0 255 0
0.061174 0.0050786 -0.0051688 2 0.26489 0.069154 0.9618 0 255 0
0.061904 0.0047186 -0.0039257 2 0.012357 -0.82737 -0.56152 0 255 0
0.060914 0.0085486 -0.0035093 2 -0.3583 0.13489 0.92381 0 255 0
0.058774 0.0096086 -0.0048812 2 -0.32142 -0.30822 0.89537 0 255 0
0.059304 0.0054286 -0.0055047 2 -0.20046 -0.25923 -0.94478 0 255 0
0.060344 0.0076886 -0.0037768 2 -0.35115 0.35523 0.86631 0 255 0
0.058754 0.0087586 -0.0038777 2 -0.11622 -0.57943 0.80669 0 255 0
0.059474 0.0071786 -0.0052102 2 -0.41171 0.31281 -0.85595 0 255 0
0.060084 0.0047186 -0.0054249 2 0.10447 -0.70527 -0.7012 0 255 0
0.061494 0.0066886 -0.0048945 2 -0.0036453 0.12492 0.99216 0 255 0
0.058764 0.0075586 -0.004103 2 -0.29243 -0.41312 0.86245 0 255 0
0.059454 0.0056286 -0.0043108 2 -0.21366 0.1301 0.96821 0 255 0
0.059904 0.0089386 -0.0036043 2 0.15642 -0.16382 -0.97401 0 255 0
0.057334 0.0095386 -0.0051658 2 0.030529 -0.41861 -0.90765 0 255 0
0.058234 0.0065486 -0.0043918 2 0.10651 0.8178 -0.56556 0 255 0
0.057584 0.0060886 -0.0057638 2 -0.13386 -0.19895 0.97082 0 255 0
0.058404 0.0050386 -0.0045742 2 -0.13208 -0.26295 0.95573 0 255 0
0.060514 0.0050986 -0.0041642 2 0.15609 0.11068 -0.98152 0 255 0
0.059574 0.0067386 -0.0040954 2 0.23758 0.11449 -0.9646 0 255 0
0.060284 0.0064786 -0.0051767 2 -0.43822 -0.16512 -0.88357 0 255 0
0.057794 0.0094386 -0.0038823 2 0.025783 0.30608 -0.95166 0 255 0
0.065374 0.0076686 -0.0038601 2 -0.52063 0.49376 -0.69653 0 255 0
0.064994 0.0088586 -0.0025478 2 0.088051 -0.86696 -0.49054 0 255 0
0.063894 0.0067286 -0.0043553 2 -0.29986 -0.10171 0.94855 0 255 0
0.062134 0.0057686 -0.0048961 2 0.14253 0.03751 -0.98908 0 255 0
0.065154 0.0070886 -0.0028738 2 -0.11438 0.27379 0.95496 0 255 0
0.066394 0.0089886 -0.0033567 2 0.040694 -0.4101 -0.91113 0 255 0
0.062814 0.0071286 -0.0045285 2 0.41548 -0.08281 0.90583 0 255 0
0.066344 0.0079386 -0.0035747 2 -0.10003 -0.0054639 -0.99497 0 255 0
0.062284 0.0094986 -0.0041797 2 -0.33453 0.018981 0.94219 0 255 0
0.063544 0.0056086 -0.0034819 2 0.24447 -0.55607 -0.79437 0 255 0
0.066694 0.0079586 -0.0023588 2 -0.33189 0.38861 0.85955 0 255 0
0.066424 0.0055186 -0.0028418 2 -0.21158 -0.004316 0.97735 0 255 0
0.062804 0.0048686 -0.0048376 2 0.38421 0.033372 0.92264 0 255 0
0.064214 0.0079786 -0.0040691 2 -0.0014674 0.97473 0.22337 0 255 0
0.062734 0.0080886 -0.0032214 2 0.21413 0.39384 0.89389 0 255 0
0.065784 0.0061786 -0.0040173 2 -0.088224 -0.6101 0.78739 0 255 0
0.066634 0.0066986 -0.0025848 2 -0.054062 -0.67529 -0.73557 0 255 0
0.066464 0.0049786 -0.0039992 2 -0.2935 0.26733 0.91782 0 255 0
0.064834 0.0049486 -0.0032748 2 -0.3119 0.20667 0.92736 0 255 0
0.065034 0.0089686 -0.0036904 2 -0.2181 -0.42137 0.88027 0 255 0
0.067034 0.0092186 -0.0019738 2 0.19419 -0.53053 0.82512 0 255 0
0.064974 0.0060486 -0.0030948 2 0.42856 0.10668 0.89719 0 255 0
0.064934 0.0053486 -0.0043218 2 -0.19889 0.13475 0.97071 0 255 0
0.063254 0.0088486 -0.0041237 2 -0.0074946 -0.91519 0.40294 0 255 0
0.063724 0.0067986 -0.0032378 2 0.25234 -0.3994 -0.88137 0 255 0
0.063474 0.0056586 -0.0046126 2 0.1914 -0.7428 -0.64157 0 255 0
0.062084 0.0068586 -0.0035797 2 0.032908 0.054145 0.99799 0 255 0
0.063594 0.0086886 -0.0028918 2 0.70896 -0.15387 -0.68826 0 255 0
0.062224 0.0082886 -0.0044505 2 0.2097 -0.38722 -0.89782 0 255 0
0.062064 0.0089186 -0.0031708 2 0.1763 0.12905 -0.97584 0 255 0
0.062484 0.0057086 -0.0036968 2 -0.019524 0.94329 0.33138 0 255 0
0.068664 0.0069086 -0.0031908 2 0.11322 -0.06403 0.9915 0 255 0
0.070904 0.0094886 -0.00092986 2 -0.12193 -0.13495 0.98332 0 255 0
0.071394 0.0074186 -0.0024048 2 -0.21871 0.39394 0.89274 0 255 0
0.069934 0.0082186 -0.0026408 2 0.11588 -0.038942 -0.9925 0 255 0
0.067974 0.0087586 -0.0030198 2 0.1467 0.21797 -0.96487 0 255 0
0.070534 0.0051486 -0.0018828 2 -0.22466 0.43825 0.87033 0 255 0
0.069834 0.0082386 -0.0015028 2 0.30203 0.26513 -0.91569 0 255 0
0.068654 0.0094386 -0.0015288 2 -0.42389 0.12056 -0.89765 0 255 0
0.071794 0.0088686 -0.0019908 2 0.17007 0.43171 0.88583 0 255 0
0.069504 0.0071486 -0.0018198 2 -0.13653 -0.83834 -0.52778 0 255 0
0.069954 0.0093786 -0.0023568 2 -0.33575 0.21485 -0.91712 0 255 0
0.067474 0.0052786 -0.0037279 2 -0.0025566 0.96324 0.26864 0 255 0
0.071144 0.0062086 -0.0015518 2 0.17957 -0.0040362 -0.98374 0 255 0
0.071744 0.0048886 -0.0026928 2 0.076106 -0.14034 -0.98717 0 255 0
0.068694 0.0079886 -0.0018668 2 0.20986 0.24854 -0.94562 0 255 0
0.067724 0.0077486 -0.0032767 2 -0.28668 -0.41431 0.86381 0 255 0
0.067134 0.0065486 -0.0036227 2 0.031382 0.99914 -0.027234 0 255 0
0.070234 0.0067986 -0.0028088 2 -0.12078 -0.56336 0.81734 0 255 0
0.068354 0.0065986 -0.0021998 2 -0.31439 0.36491 0.87636 0 255 0
0.067104 0.0047186 -0.0027708 2 0.12759 0.64339 -0.75483 0 255 0
0.071624 0.0083286 -0.0010128 2 0.15032 0.18624 -0.97094 0 255 0
0.072044 0.0053586 -0.0014538 2 -0.21517 0.33875 -0.91594 0 255 0
0.068734 0.0048986 -0.0023698 2 0.038073 0.99542 -0.087667 0 255 0
0.068814 0.0052286 -0.003411 2 0.0014477 -0.19534 -0.98073 0 255 0
0.071474 0.0062586 -0.0025728 2 -0.099302 0.43656 0.89418 0 255 0
0.070264 0.0053786 -0.0030258 2 0.042426 -0.98894 -0.14209 0 255 0
0.067864 0.0055586 -0.0024898 2 -0.32063 0.20324 0.92514 0 255 0
0.069704 0.0094986 -0.0012368 2 0.073091 -0.94277 -0.32532 0 255 0
0.068904 0.0081486 -0.0029288 2 0.24771 -0.10942 -0.96264 0 255 0
0.071024 0.0074586 -0.0013748 2 0.15037 -0.34752 -0.92554 0 255 0
0.067674 0.0082486 -0.0020518 2 -0.26794 0.11604 -0.95642 0 255 0
0.070124 0.0062186 -0.0018168 2 0.14411 -0.45018 -0.88123 0 255 0
0.074374 0.0089986 -0.0012548 2 0.13991 0.2503 -0.95801 0 255 0
0.073904 0.0065186 -0.00075187 2 -0.11069 -0.28406 0.9524 0 255 0
0.076784 0.0091086 0.00066214 2 -0.34792 -0.095953 0.9326 0 255 0
0.073044 0.0078586 -0.0018848 2 0.15679 -0.30114 -0.9406 0 255 0
0.073234 0.0051686 -0.0022698 2 0.062543 0.98526 -0.1592 0 255 0
0.076314 0.0080386 -0.00090286 2 -0.0072338 0.48823 0.87268 0 255 0
0.073744 0.0091486 -0.00023886 2 -0.11755 -0.46774 0.87601 0 255 0
0.075624 0.0067286 -0.0013618 2 -0.35199 -0.33065 -0.87566 0 255 0
0.075064 0.0058786 -0.00052486 2 0.09601 -0.86037 -0.50055 0 255 0
0.075654 0.0076786 -2.4862e-05 2 -0.28746 -0.40731 0.86687 0 255 0
0.076884 0.0053186 -0.0012088 2 -0.15093 -0.46887 0.87027 0 255 0
0.075904 0.0066286 -0.00017286 2 -0.13169 0.40589 -0.90439 0 255 0
0.073364 0.0088186 -0.0015778 2 0.055256 -0.9745 -0.21747 0 255 0
0.072524 0.0093386 -0.00053886 2 -0.057097 -0.71265 0.6992 0 255 0
0.074154 0.0071786 -0.0016968 2 -0.19817 0.39722 -0.89607 0 255 0
0.075374 0.0052286 -0.0016578 2 -0.078711 -0.22037 0.97224 0 255 0
0.074764 0.0083986 -0.00012486 2 -0.099449 -0.48592 0.86833 0 255 0
0.072904 0.0067286 -0.0021118 2 -0.02856 0.92699 0.37399 0 255 0
0.076794 0.0060286 5.1392e-06 2 0.20842 0.6417 0.73809 0 255 0
0.074164 0.0057486 -0.0019158 2 0.010688 -0.46256 0.88653 0 255 0
0.073574 0.0081186 -0.00052486 2 0.21023 0.52809 -0.82275 0 255 0
0.075264 0.0094286 0.00029014 2 -0.16123 -0.019009 0.98673 0 255 0
0.073504 0.0055586 -0.0010138 2 -0.25218 0.63566 -0.72962 0 255 0
0.074774 0.0048686 -0.00076186 2 0.0050829 0.9792 0.20284 0 255 0
0.076794 0.0065586 -0.0010478 2 -0.21354 -0.24802 0.94493 0 255 0
0.076134 0.0092186 -0.00070186 2 0.15335 0.0013024 -0.98817 0 255 0
0.075784 0.0049186 -0.00046786 2 -0.013596 -0.29104 0.95661 0 255 0
0.072474 0.0072686 -0.0010278 2 0.25324 0.14622 -0.95629 0 255 0
0.075044 0.0078286 -0.0013208 2 -0.12895 -0.34744 0.92879 0 255 0
0.076814 0.0079386 0.00039614 2 -0.15294 0.11432 0.9816 0 255 0
0.079764 0.0053786 0.00084014 2 0.3026 0.096727 -0.9482 0 255 0
0.077804 0.0072386 -0.00062286 2 -0.27805 0.23802 -0.93061 0 255 0
0.077954 0.0072086 0.00059114 2 0.43882 -0.098112 0.8932 0 255 0
0.079174 0.0090786 0.0014292 2 0.14884 0.26991 -0.95131 0 255 0
0.079024 0.0074386 -0.00021586 2 0.13999 0.46598 -0.87365 0 255 0
0.079904 0.0069286 0.0011562 2 0.14859 0.22527 -0.9629 0 255 0
0.079074 0.0047886 -0.00063286 2 -0.20657 0.16967 0.96361 0 255 0
0.078914 0.0076986 0.00098814 2 -0.33355 0.28118 -0.89982 0 255 0
0.077914 0.0058286 -0.00082986 2 -0.31668 -0.061881 -0.94651 0 255 0
0.081464 0.0061685 0.0015272 2 -0.066135 0.30022 0.95157 0 255 0
0.080374 0.0079086 0.0015282 2 0.25052 -0.042467 -0.96718 0 255 0
0.077654 0.0084786 0.00077014 2 0.15507 -0.33865 -0.92804 0 255 0
0.081744 0.0075285 0.0018962 2 -0.068347 -0.48256 0.87319 0 255 0
0.077974 0.0094286 0.0011302 2 0.2484 0.12236 -0.9609 0 255 0
0.080804 0.0071386 0.00028514 2 -0.1322 0.13886 0.98145 0 255 0
0.078864 0.0063886 -0.00046787 2 -0.22419 0.073453 0.97177 0 255 0
0.078114 0.0052386 0.00029014 2 0.15231 -0.41415 -0.89737 0 255 0
0.078234 0.0090486 -0.00010686 2 0.078983 -0.32796 0.94139 0 255 0
0.081964 0.0048185 0.0014862 2 0.017364 -0.0042146 -0.99984 0 255 0
0.081554 0.0087586 0.00089414 2 0.29391 0.0019001 0.95583 0 255 0
0.082004 0.0063786 0.00052413 2 -0.11143 0.20466 0.97247 0 255 0
0.081214 0.0088485 0.0020562 2 0.080039 -0.29513 -0.9521 0 255 0
0.080324 0.0095886 0.0019522 2 -0.1031 0.40065 0.91041 0 255 0
0.079754 0.0085286 0.00023914 2 -0.36921 -0.4902 -0.78955 0 255 0
0.077184 0.0085286 -0.00053386 2 0.082501 0.731 -0.67737 0 255 0
0.079874 0.0064486 -0.00014587 2 -0.11129 -0.1778 0.97775 0 255 0
0.080954 0.0052086 0.0012032 2 -0.043508 0.88072 0.47164 0 255 0
0.081244 0.0054986 0.00014714 2 0.15132 -0.16584 -0.97447 0 255 0
0.080014 0.0053886 -0.00024986 2 0.14145 0.099767 0.9849 0 255 0
0.084764 0.0077485 0.0017302 2 -0.11608 -0.3382 -0.93389 0 255 0
0.084474 0.0054185 0.0024622 2 0.23444 0.032316 -0.97159 0 255 0
0.086854 0.0080885 0.0039452 2 -0.28458 0.1342 0.94921 0 255 0
0.084444 0.0095785 0.0034412 2 0.16622 -0.63677 -0.75293 0 255 0
0.083474 0.0091485 0.0029692 2 0.075619 -0.33217 0.94018 0 255 0
0.083624 0.0060285 0.0010062 2 0.27659 0.262 -0.92459 0 255 0
0.085404 0.0077685 0.0032972 2 -0.049611 -0.38469 -0.92171 0 255 0
0.083024 0.0083185 0.0012662 2 -0.49832 0.7676 -0.40306 0 255 0
0.085984 0.0087085 0.0037802 2 -0.31468 0.012311 0.94912 0 255 0
0.083334 0.0047185 0.00070914 2 -0.37063 0.030154 0.92829 0 255 0
0.085804 0.0050285 0.0028952 2 -0.081302 -0.60021 0.7957 0 255 0
0.086984 0.0079685 0.0025692 2 -0.12025 -0.31843 0.94029 0 255 0
0.086584 0.0066485 0.0034972 2 0.14496 0.35588 0.92322 0 255 0
0.086684 0.0059185 0.0020272 2 0.046884 -0.43323 -0.90006 0 255 0
0.084194 0.0067685 0.0026082 2 -0.19433 -0.30367 -0.93275 0 255 0
0.084504 0.0092385 0.0020192 2 -0.12087 0.29621 0.94745 0 255 0
0.085814 0.0072485 0.0019972 2 -0.13702 -0.41093 -0.90131 0 255 0
0.083204 0.0046585 0.0018942 2 0.33864 0.049238 -0.93963 0 255 0
0.085674 0.0048985 0.0015172 2 -0.10867 -0.48662 0.86683 0 255 0
0.082954 0.0080885 0.0024722 2 0.10462 -0.50868 -0.85458 0 255 0
0.082404 0.0052585 0.00048014 2 -0.34541 0.3571 0.86786 0 255 0
0.085824 0.0083685 0.0022492 2 0.15156 -0.078927 -0.98529 0 255 0
0.082184 0.0076485 0.00083114 2 -0.0030671 -0.0067714 -0.99997 0 255 0
0.085514 0.0062085 0.0016742 2 -0.29101 -0.35999 0.88641 0 255 0
0.083194 0.0058685 0.0020912 2 -0.35857 -0.14124 0.92276 0 255 0
0.083084 0.0069685 0.0022512 2 0.079527 0.14926 0.98559 0 255 0
0.084004 0.0081885 0.0028742 2 -0.23455 0.15511 0.95965 0 255 0
0.082224 0.0090385 0.0024592 2 0.099026 0.12969 0.9866 0 255 0
0.085604 0.0063585 0.0030592 2 -0.17525 -0.4123 0.89403 0 255 0
0.083904 0.0070285 0.0012782 2 -0.10518 -0.46669 0.87815 0 255 0
0.084694 0.0053385 0.0012362 2 -0.17763 0.35913 0.91623 0 255 0
0.086794 0.0069485 0.0022722 2 -0.19219 -0.50822 0.83951 0 255 0
0.088744 0.0091385 0.0035422 2 -0.26846 -0.079327 0.96002 0 255 0
0.089294 0.0057385 0.0043892 2 0.14733 0.25834 -0.95475 0 255 0
0.090024 0.0048985 0.0045462 2 0.25124 0.055498 -0.96633 0 255 0
0.090464 0.0084685 0.0054802 2 0.17231 0.1414 0.97484 0 255 0
0.090414 0.0069285 0.0051022 2 0.020522 -0.83333 0.55239 0 255 0
0.089604 0.0050285 0.0029402 2 0.13991 0.21717 -0.96605 0 255 0
0.091524 0.0071485 0.0041222 2 0.076709 0.11916 0.98991 0 255 0
0.090274 0.0069085 0.0035502 2 0.14098 0.40558 -0.90312 0 255 0
0.087254 0.0090185 0.0029402 2 -0.011089 -0.053245 -0.99852 0 255 0
0.088594 0.0060885 0.0027482 2 -0.12072 0.11351 0.98618 0 255 0
0.091084 0.0060785 0.0051722 2 0.084605 0.35106 0.93252 0 255 0
0.088054 0.0053785 0.0038252 2 0.1619 0.037958 -0.98608 0 255 0
0.087434 0.0091085 0.0044832 2 0.13721 -0.32947 -0.93414 0 255 0
0.087784 0.0069585 0.0026282 2 -0.26231 0.072094 0.96229 0 255 0
0.090994 0.0058085 0.0036062 2 -0.07159 -0.76806 -0.63637 0 255 0
0.091724 0.0089685 0.0050862 2 -0.20506 -0.24151 0.94849 0 255 0
0.087644 0.0051685 0.0022572 2 0.013413 -0.99946 0.029937 0 255 0
0.088324 0.0067585 0.0042162 2 0.30689 -0.29404 -0.90518 0 255 0
0.092054 0.0065185 0.0056372 2 0.12483 -0.58961 0.79798 0 255 0
0.091464 0.0050285 0.0051392 2 0.13612 -0.57812 -0.80452 0 255 0
0.090454 0.0092085 0.0042912 2 -0.11942 0.26358 0.95722 0 255 0
0.088204 0.0080885 0.0030582 2 0.086997 -0.91024 -0.40484 0 255 0
0.088394 0.0092385 0.0049192 2 0.24346 -0.068385 0.9675 0 255 0
0.088274 0.0080685 0.0045122 2 0.18129 0.59618 -0.78211 0 255 0
0.088964 0.0046385 0.0040742 2 0.24517 -0.3378 0.90873 0 255 0
0.089434 0.0079785 0.0034822 2 -0.091596 0.59583 0.79787 0 255 0
0.091304 0.0074785 0.0055582 2 0.031855 -0.99944 -0.010061 0 255 0
0.087094 0.0049885 0.0033872 2 0.21865 -0.59859 -0.77064 0 255 0
0.090914 0.0080485 0.0040912 2 -0.10904 0.29985 0.94773 0 255 0
0.089194 0.0072685 0.0046722 2 -0.10771 -0.38129 0.91816 0 255 0
0.089494 0.0082285 0.0050442 2 -0.38324 -0.13892 -0.91314 0 255 0
0.092034 0.0054985 0.0039842 2 0.33771 -0.1825 -0.92339 0 255 0
0.088844 0.0071585 0.0030712 2 0.15486 -0.11341 -0.98141 0 255 0
0.092414 0.0080685 0.0051982 2 -0.049413 0.78007 0.62374 0 255 0
0.092974 0.0057485 0.0045372 2 0.086981 0.90561 -0.41511 0 255 0
0.093814 0.0050385 0.0053102 2 0.27882 0.097884 -0.95534 0 255 0
0.092614 0.0051785 0.0056072 2 0.30109 0.36857 0.87949 0 255 0
0.093094 0.0061885 0.0057712 2 -0.060495 0.85729 0.51127 0 255 0
0.092904 0.0069585 0.0049132 2 0.25066 -0.14035 -0.95785 0 255 0
0.037374 0.014188 -0.0041313 2 -0.076473 -0.069653 0.99464 0 255 0
0.041854 0.010678 -0.006021 2 -0.12137 0.45548 -0.88193 0 255 0
0.039274 0.010928 -0.0042689 2 0.16248 0.22547 -0.96061 0 255 0
0.041964 0.014328 -0.0046725 2 -0.10172 0.27128 0.95711 0 255 0
0.037744 0.012408 -0.0034486 2 -0.17263 -0.66659 -0.72516 0 255 0
0.040274 0.012448 -0.0038113 2 0.13364 0.47635 -0.86904 0 255 0
0.038384 0.012868 -0.0049063 2 -0.10928 0.23757 0.9652 0 255 0
0.041284 0.013188 -0.0050912 2 0.8118 0.4026 -0.42295 0 255 0
0.037744 0.014098 -0.0026278 2 -0.10139 0.44232 0.89111 0 255 0
0.039244 0.011638 -0.0054926 2 0.077226 -0.20056 -0.97663 0 255 0
0.039694 0.010668 -0.0058892 2 0.11054 -0.37824 -0.91908 0 255 0
0.037484 0.011838 -0.0051759 2 -0.15667 -0.55506 0.81693 0 255 0
0.040394 0.013828 -0.0047692 2 -0.19217 -0.058296 0.97963 0 255 0
0.040544 0.011348 -0.0042602 2 0.1463 -0.095307 -0.98464 0 255 0
0.041164 0.012008 -0.0055374 2 -0.21098 -0.21779 0.95292 0 255 0
0.040024 0.012578 -0.0052389 2 0.05013 0.033101 -0.99819 0 255 0
0.037774 0.010138 -0.004339 2 0.093403 0.14197 -0.98545 0 255 0
0.041364 0.010318 -0.0046926 2 0.15913 0.071473 -0.98467 0 255 0
0.037684 0.010688 -0.0056436 2 -0.18044 0.60995 -0.77162 0 255 0
0.041524 0.012138 -0.00404 2 -0.13514 -0.51744 0.84498 0 255 0
0.039084 0.012508 -0.0036374 2 0.1789 0.48958 -0.85341 0 255 0
0.037064 0.012858 -0.0047319 2 -0.44852 -0.082247 -0.88998 0 255 0
0.038684 0.013688 -0.0029908 2 -0.33048 -0.19574 0.92329 0 255 0
0.040864 0.013858 -0.0032219 2 -0.22171 -0.19431 -0.95556 0 255 0
0.039234 0.013578 -0.0047338 2 0.39724 -0.35114 0.84788 0 255 0
0.039874 0.014228 -0.0029358 2 0.099896 0.23098 0.96782 0 255 0
0.040884 0.0099585 -0.0061765 2 0.077463 -0.046582 0.99591 0 255 0
0.038304 0.011588 -0.0038692 2 0.14766 0.41933 -0.89574 0 255 0
0.042004 0.011188 -0.004445 2 0.26267 -0.50344 -0.82314 0 255 0
0.044474 0.011328 -0.0059123 2 -0.20291 -0.27134 0.94085 0 255 0
0.044374 0.013698 -0.0036043 2 0.12965 -0.51049 0.85005 0 255 0
0.043014 0.010818 -0.0046653 2 0.15281 0.17561 -0.97253 0 255 0
0.042564 0.012368 -0.0040425 2 -0.34983 0.07183 -0.93406 0 255 0
0.046724 0.010748 -0.0060573 2 -0.16204 -0.30162 0.93956 0 255 0
0.046504 0.010548 -0.0047835 2 -0.075103 -0.22139 0.97229 0 255 0
0.045454 0.013108 -0.0052866 2 -0.31718 0.10597 0.94243 0 255 0
0.045734 0.013698 -0.0036513 2 0.13422 0.29338 -0.94653 0 255 0
0.044614 0.012408 -0.0055517 2 0.061491 -0.33786 0.93918 0 255 0
0.045084 0.012358 -0.0041393 2 0.30649 -0.18849 -0.93303 0 255 0
0.042684 0.013268 -0.0051619 2 -0.053345 -0.48868 0.87083 0 255 0
0.042354 0.013528 -0.0035458 2 0.035126 0.021299 -0.99916 0 255 0
0.043974 0.011278 -0.0045357 2 -0.31097 -0.40475 -0.85993 0 255 0
0.046864 0.013548 -0.0051314 2 -0.13455 -0.37782 -0.91605 0 255 0
0.043994 0.014418 -0.0047807 2 0.15437 -0.25019 -0.95581 0 255 0
0.045644 0.011388 -0.0045241 2 0.19492 0.0084873 -0.98078 0 255 0
0.046844 0.012488 -0.0055302 2 0.30379 -0.30701 -0.90192 0 255 0
0.045794 0.0097986 -0.0063354 2 -0.13298 -0.1781 0.97499 0 255 0
0.045814 0.0096486 -0.0050342 2 -0.29989 0.14127 -0.94346 0 255 0
0.046774 0.013208 -0.0038574 2 -0.0089878 -0.9581 0.28631 0 255 0
0.043374 0.013288 -0.003754 2 0.25224 0.029561 0.96721 0 255 0
0.045834 0.011848 -0.0057532 2 0.14138 0.3305 -0.93316 0 255 0
0.043874 0.012338 -0.0041263 2 0.0078434 -0.59651 -0.80257 0 255 0
0.042934 0.010398 -0.0061563 2 0.010768 0.33774 0.94118 0 255 0
0.045574 0.014348 -0.0048178 2 -0.33274 0.1187 -0.93552 0 255 0
0.043194 0.011918 -0.0057129 2 0.049358 -0.17888 -0.98263 0 255 0
0.044004 0.013308 -0.0052029 2 -0.12694 -0.16014 0.9789 0 255 0
0.045034 0.010518 -0.0047842 2 0.2833 -0.20481 -0.93691 0 255 0
0.046304 0.012308 -0.0041859 2 0.25654 0.079973 0.96322 0 255 0
0.050834 0.010538 -0.0058399 2 0.077437 -0.86534 -0.49517 0 255 0
0.051834 0.010208 -0.0045241 2 0.1533 0.056892 -0.98654 0 255 0
0.050024 0.012328 -0.0040335 2 0.00078612 0.65186 -0.75834 0 255 0
0.051974 0.013068 -0.0035683 2 0.2894 -0.012629 -0.95712 0 255 0
0.051974 0.011378 -0.0054672 2 -0.079549 -0.32974 0.94071 0 255 0
0.048084 0.010388 -0.0060847 2 0.39891 -0.12075 0.90901 0 255 0
0.047374 0.014368 -0.0033487 2 0.33305 0.40488 0.85156 0 255 0
0.051334 0.013298 -0.0049201 2 0.073417 0.94405 -0.32152 0 255 0
0.049474 0.013578 -0.0035956 2 -0.0016227 0.98013 0.19835 0 255 0
0.047294 0.011678 -0.0044195 2 0.19465 0.13683 0.97128 0 255 0
0.051464 0.011238 -0.0042768 2 0.062215 -0.56059 0.82575 0 255 0
0.048514 0.0098286 -0.0048926 2 0.31275 0.29536 -0.90274 0 255 0
0.048424 0.013898 -0.003523 2 -0.34963 0.32352 -0.87926 0 255 0
0.051094 0.014278 -0.0045866 2 0.024588 0.73813 0.67421 0 255 0
