ply
format ascii 1.0
comment author Paulo Abelha (p.abelha at abdn ac uk)
element vertex 1262
property float x
property float y
property float z
property int segm
property uchar red
property uchar green
property uchar blue
end_header
0.096871 0.079855 -0.0067952 4 255 0 0
0.2302 0.083957 -0.0047999 4 255 0 0
0.1676 0.079019 -0.0019531 4 255 0 0
0.25518 0.080886 -0.0068018 29 0 0 255
0.26064 0.076109 -0.0074598 29 0 0 255
0.24049 0.088011 -0.0092187 29 0 0 255
0.096151 0.082775 -0.0068456 4 255 0 0
0.10577 0.077121 0.0020078 4 255 0 0
0.29059 0.077671 0.0077586 29 0 0 255
0.14555 0.077135 -0.0018894 4 255 0 0
0.25619 0.088462 -0.0073422 29 0 0 255
0.30038 0.091669 0.015244 29 0 0 255
0.12329 0.074231 -0.00097405 4 255 0 0
0.27611 0.06907 -5.9138e-05 29 0 0 255
0.13399 0.075552 -0.0015271 4 255 0 0
0.25727 0.077533 -0.0083577 29 0 0 255
0.30085 0.074177 0.016199 29 0 0 255
0.26987 0.070387 -0.0039943 29 0 0 255
0.17264 0.086134 0.0036664 4 255 0 0
0.23322 0.076923 -0.0071603 29 0 0 255
0.28761 0.090146 0.0048884 29 0 0 255
0.10898 0.073643 0.0019547 4 255 0 0
0.17945 0.085973 -0.00013089 4 255 0 0
0.28099 0.072182 0.0010563 29 0 0 255
0.13603 0.079143 0.0044807 4 255 0 0
0.19981 0.085248 0.0023815 4 255 0 0
0.11992 0.077912 0.003045 4 255 0 0
0.2182 0.084577 -0.0016184 4 255 0 0
0.24313 0.083825 -0.0056141 29 0 0 255
0.27757 0.092424 -0.0024203 29 0 0 255
0.28072 0.089269 -0.00042768 29 0 0 255
0.1165 0.081378 0.0047765 4 255 0 0
0.26562 0.069721 -0.0052595 29 0 0 255
0.15947 0.077186 -0.0013483 4 255 0 0
0.25326 0.076282 -0.0052881 29 0 0 255
0.2843 0.091585 0.00060712 29 0 0 255
0.2161 0.082637 0.0016413 4 255 0 0
0.14023 0.08751 0.0018777 4 255 0 0
0.28185 0.085191 -0.00033178 29 0 0 255
0.24327 0.072422 -0.0084275 29 0 0 255
0.10163 0.07393 0.001839 4 255 0 0
0.26857 0.071069 -0.0019383 29 0 0 255
0.29545 0.092214 0.010345 29 0 0 255
0.23388 0.080302 -0.0079823 29 0 0 255
0.17178 0.079987 0.0055153 4 255 0 0
0.26616 0.0682 -0.0043661 29 0 0 255
0.14524 0.087258 0.0024747 4 255 0 0
0.17038 0.076424 0.004282 4 255 0 0
0.12864 0.082179 0.0053169 4 255 0 0
0.23858 0.079576 -0.008547 29 0 0 255
0.13062 0.086423 -0.0024756 4 255 0 0
0.10705 0.078846 -0.0056431 4 255 0 0
0.085375 0.084163 -0.0076603 4 255 0 0
0.21182 0.079768 0.0028031 4 255 0 0
0.11236 0.083789 0.004296 4 255 0 0
0.15744 0.074828 0.0016074 4 255 0 0
0.18162 0.075856 0.00069124 4 255 0 0
0.24464 0.079703 -0.0054337 29 0 0 255
0.13547 0.079329 -0.0034224 4 255 0 0
0.27999 0.072678 0.0020864 29 0 0 255
0.1112 0.074973 -0.0033275 4 255 0 0
0.18609 0.08597 0.0029531 4 255 0 0
0.21144 0.078241 -0.0027303 4 255 0 0
0.20004 0.077967 0.0035326 4 255 0 0
0.13266 0.074193 0.0026434 4 255 0 0
0.12389 0.073792 0.0021857 4 255 0 0
0.27831 0.091436 -0.00016325 29 0 0 255
0.16918 0.079841 0.0054288 4 255 0 0
0.24545 0.082914 -0.0099088 29 0 0 255
0.24881 0.070305 -0.0047167 29 0 0 255
0.22326 0.080959 0.00030279 4 255 0 0
0.098752 0.086813 0.0019277 4 255 0 0
0.10636 0.075077 0.0022832 4 255 0 0
0.11819 0.074879 0.0029621 4 255 0 0
0.24089 0.088069 -0.0058372 29 0 0 255
0.16304 0.082294 -0.002442 4 255 0 0
0.12055 0.073665 -0.0001998 4 255 0 0
0.28373 0.07927 0.0021198 29 0 0 255
0.27332 0.090306 -0.0048767 29 0 0 255
0.11057 0.088439 -0.0019724 4 255 0 0
0.10005 0.086362 -0.0052956 4 255 0 0
0.23933 0.082111 -0.0089 29 0 0 255
0.14619 0.076549 0.0041245 4 255 0 0
0.2721 0.084525 -0.0020775 29 0 0 255
0.17454 0.082324 -0.0021242 4 255 0 0
0.14071 0.08473 -0.0027074 4 255 0 0
0.15004 0.083201 -0.0027036 4 255 0 0
0.19442 0.083725 0.0043555 4 255 0 0
0.21699 0.079795 0.0018449 4 255 0 0
0.098834 0.08803 0.00072174 4 255 0 0
0.23716 0.088144 -0.0060298 29 0 0 255
0.13027 0.073856 0.0011293 4 255 0 0
0.26629 0.070134 -0.0025964 29 0 0 255
0.28546 0.090055 0.0035223 29 0 0 255
0.083006 0.081779 -0.0082432 4 255 0 0
0.083062 0.077196 -0.0020861 4 255 0 0
0.12129 0.085413 0.0040364 4 255 0 0
0.28501 0.071457 0.0030454 29 0 0 255
0.16026 0.087028 0.001698 4 255 0 0
0.083771 0.081773 -0.0014455 4 255 0 0
0.21524 0.076457 -0.0018482 4 255 0 0
0.29034 0.072161 0.0066674 29 0 0 255
0.17969 0.075373 0.0015981 4 255 0 0
0.20601 0.081722 -0.0027833 4 255 0 0
0.10372 0.083899 0.0037455 4 255 0 0
0.10496 0.074866 -0.003932 4 255 0 0
0.12193 0.075214 0.0031768 4 255 0 0
0.1329 0.086699 0.0033945 4 255 0 0
0.10921 0.074437 -0.0030091 4 255 0 0
0.11485 0.075266 -0.003208 4 255 0 0
0.15419 0.07511 0.0035276 4 255 0 0
0.095156 0.089058 -0.0022392 4 255 0 0
0.14707 0.078437 0.0041681 4 255 0 0
0.20041 0.085535 0.00087528 4 255 0 0
0.17974 0.077309 0.0043337 4 255 0 0
0.23081 0.080739 -0.0075409 4 255 0 0
0.12113 0.07439 -0.001519 4 255 0 0
0.23064 0.075881 -0.0040578 4 255 0 0
0.26781 0.092907 -0.0059545 29 0 0 255
0.15917 0.086932 0.00056018 4 255 0 0
0.1956 0.084987 -0.00091246 4 255 0 0
0.27108 0.083155 -0.0049838 29 0 0 255
0.082957 0.08152 -0.0027034 4 255 0 0
0.10431 0.07597 0.0019426 4 255 0 0
0.11831 0.088101 0.0011704 4 255 0 0
0.11712 0.085462 -0.0041889 4 255 0 0
0.29857 0.08619 0.013746 29 0 0 255
0.12145 0.087842 -0.0017336 4 255 0 0
0.29185 0.072692 0.009679 29 0 0 255
0.099838 0.074063 -0.0037035 4 255 0 0
0.17507 0.083097 0.0056043 4 255 0 0
0.18234 0.076353 2.712e-05 4 255 0 0
0.23913 0.075805 -0.0039098 29 0 0 255
0.24542 0.083504 -0.0059448 29 0 0 255
0.1143 0.085681 -0.0043433 4 255 0 0
0.084043 0.08372 -0.0012277 4 255 0 0
0.13006 0.074127 0.00017229 4 255 0 0
0.18798 0.079959 0.0051627 4 255 0 0
0.25776 0.078918 -0.0069588 29 0 0 255
0.25137 0.082476 -0.0059792 29 0 0 255
0.096504 0.078551 -0.0065934 4 255 0 0
0.27517 0.089343 -0.0040243 29 0 0 255
0.26299 0.082435 -0.0073018 29 0 0 255
0.2441 0.092221 -0.0086383 29 0 0 255
0.080385 0.079671 -0.0065921 4 255 0 0
0.2949 0.085947 0.0091567 29 0 0 255
0.2264 0.083796 -0.0020925 4 255 0 0
0.11572 0.086831 -0.0034667 4 255 0 0
0.16762 0.079672 0.0052978 4 255 0 0
0.25781 0.074696 -0.0059888 29 0 0 255
0.28482 0.078647 0.0019321 29 0 0 255
0.2112 0.08139 -0.0033457 4 255 0 0
0.2156 0.084709 -0.0006653 4 255 0 0
0.11966 0.07484 0.0030109 4 255 0 0
0.11832 0.088025 -0.0017882 4 255 0 0
0.30021 0.084955 0.014968 29 0 0 255
0.26916 0.088676 -0.0050829 29 0 0 255
0.14477 0.0873 0.00014622 4 255 0 0
0.29866 0.080152 0.01398 29 0 0 255
0.26082 0.070428 -0.0067737 29 0 0 255
0.10792 0.079472 0.003639 4 255 0 0
0.083831 0.073614 -0.0005433 4 255 0 0
0.085135 0.080646 -0.0080374 4 255 0 0
0.10651 0.085101 0.0034846 4 255 0 0
0.28564 0.085579 0.0024044 29 0 0 255
0.10216 0.074636 0.0020126 4 255 0 0
0.25313 0.083393 -0.0093601 29 0 0 255
0.23997 0.083115 -0.0046871 29 0 0 255
0.091601 0.079819 0.0027231 4 255 0 0
0.11544 0.085895 0.0035064 4 255 0 0
0.27014 0.070154 -0.0014488 29 0 0 255
0.28482 0.070532 0.0032771 29 0 0 255
0.23448 0.085904 -0.0054425 29 0 0 255
0.27118 0.085415 -0.0033035 29 0 0 255
0.20876 0.07648 0.0019233 4 255 0 0
0.10519 0.085195 -0.0053752 4 255 0 0
0.15901 0.079629 0.0052323 4 255 0 0
0.15034 0.087262 0.0010332 4 255 0 0
0.10964 0.080751 0.0042909 4 255 0 0
0.26777 0.09277 -0.0049343 29 0 0 255
0.13258 0.082015 0.0054506 4 255 0 0
0.1561 0.081566 0.0059383 4 255 0 0
0.15526 0.076215 -0.00072104 4 255 0 0
0.11034 0.073689 -0.0017953 4 255 0 0
0.086775 0.075203 0.00059765 4 255 0 0
0.085133 0.088628 -0.0010812 4 255 0 0
0.28562 0.085357 0.004067 29 0 0 255
0.26202 0.070383 -0.0064368 29 0 0 255
0.1108 0.087556 -0.0032763 4 255 0 0
0.24244 0.070765 -0.0046476 29 0 0 255
0.29241 0.085835 0.0085045 29 0 0 255
0.20784 0.076817 0.0023202 4 255 0 0
0.19935 0.085519 0.00029866 4 255 0 0
0.18593 0.079326 -0.0017418 4 255 0 0
0.084265 0.081992 -0.0006914 4 255 0 0
0.12102 0.079786 -0.0046125 4 255 0 0
0.29483 0.078119 0.010501 29 0 0 255
0.24925 0.075074 -0.0050587 29 0 0 255
0.25873 0.093198 -0.007358 29 0 0 255
0.12895 0.084294 0.0048509 4 255 0 0
0.24659 0.083025 -0.005954 29 0 0 255
0.11763 0.084371 0.0043656 4 255 0 0
0.16485 0.082536 0.0058485 4 255 0 0
0.19451 0.080841 0.0049724 4 255 0 0
0.084973 0.072799 -0.0038385 4 255 0 0
0.11977 0.085526 -0.0039359 4 255 0 0
0.20982 0.07717 -0.0018249 4 255 0 0
0.090716 0.073281 -0.0038462 4 255 0 0
0.28989 0.07803 0.0055778 29 0 0 255
0.093077 0.088043 -0.0046854 4 255 0 0
0.15785 0.085826 -0.0012861 4 255 0 0
0.23635 0.082183 -0.0084011 29 0 0 255
0.25781 0.088269 -0.0079595 29 0 0 255
0.1267 0.088075 -5.3951e-05 4 255 0 0
0.085806 0.088635 -0.0047677 4 255 0 0
0.22284 0.08305 -0.00028569 4 255 0 0
0.29295 0.08409 0.0078748 29 0 0 255
0.1069 0.087644 0.0016139 4 255 0 0
0.27187 0.085409 -0.0038632 29 0 0 255
0.25873 0.083045 -0.0056903 29 0 0 255
0.21549 0.079516 -0.0038357 4 255 0 0
0.2615 0.081789 -0.0058396 29 0 0 255
0.27882 0.077171 -0.00097183 29 0 0 255
0.1277 0.081884 0.0052757 4 255 0 0
0.11062 0.075427 0.0025343 4 255 0 0
0.084678 0.085937 -0.0070936 4 255 0 0
0.12147 0.083664 0.0047665 4 255 0 0
0.18985 0.086038 0.0015573 4 255 0 0
0.17719 0.086464 0.0011317 4 255 0 0
0.10329 0.073738 0.0018181 4 255 0 0
0.28263 0.090837 -0.00040419 29 0 0 255
0.25662 0.092441 -0.0071203 29 0 0 255
0.2859 0.072589 0.0054626 29 0 0 255
0.21079 0.076158 -0.00060105 4 255 0 0
0.28328 0.091288 0.0022074 29 0 0 255
0.20265 0.076074 0.0002245 4 255 0 0
0.29743 0.092117 0.010639 29 0 0 255
0.20943 0.080074 -0.0030647 4 255 0 0
0.09122 0.088542 -0.0042723 4 255 0 0
0.24679 0.091667 -0.0070406 29 0 0 255
0.23871 0.086485 -0.0050571 29 0 0 255
0.25281 0.080991 -0.0091196 29 0 0 255
0.20852 0.07657 -0.0010605 4 255 0 0
0.17373 0.075538 0.0036753 4 255 0 0
0.11231 0.087985 0.0013645 4 255 0 0
0.20985 0.076233 -0.00065853 4 255 0 0
0.25912 0.078889 -0.0059032 29 0 0 255
0.19178 0.084564 -0.0012516 4 255 0 0
0.26526 0.070866 -0.0055251 29 0 0 255
0.24527 0.092121 -0.0097235 29 0 0 255
0.082663 0.077612 -0.0027581 4 255 0 0
0.091612 0.073297 -0.0037467 4 255 0 0
0.087051 0.072754 -0.0034468 4 255 0 0
0.11227 0.073998 -0.0020481 4 255 0 0
0.092427 0.079148 -0.0071259 4 255 0 0
0.20353 0.085043 -0.00084135 4 255 0 0
0.21772 0.083712 0.00061689 4 255 0 0
0.12433 0.087765 -0.0015142 4 255 0 0
0.14841 0.077861 0.0040739 4 255 0 0
0.219 0.078868 -0.0043646 4 255 0 0
0.15243 0.078864 0.0044956 4 255 0 0
0.23179 0.076868 -0.0067143 4 255 0 0
0.20916 0.084719 -0.0014859 4 255 0 0
0.27534 0.085469 -0.0017636 29 0 0 255
0.090198 0.072393 -0.0019507 4 255 0 0
0.24771 0.079386 -0.0094443 29 0 0 255
0.16357 0.081241 -0.0024554 4 255 0 0
0.28176 0.079256 0.0023772 29 0 0 255
0.096856 0.079166 0.0027315 4 255 0 0
0.28031 0.079047 -4.4149e-05 29 0 0 255
0.13583 0.074145 0.0024126 4 255 0 0
0.29089 0.072686 0.0071318 29 0 0 255
0.12437 0.085593 -0.0035201 4 255 0 0
0.13683 0.086633 -0.0017698 4 255 0 0
0.17127 0.085562 0.0043522 4 255 0 0
0.30047 0.079519 0.014518 29 0 0 255
0.091997 0.085896 -0.0063672 4 255 0 0
0.29636 0.091997 0.011317 29 0 0 255
0.16032 0.084105 -0.002127 4 255 0 0
0.2485 0.072608 -0.0047875 29 0 0 255
0.25294 0.086514 -0.009679 29 0 0 255
0.2793 0.090765 0.00039448 29 0 0 255
0.10828 0.078082 0.0026182 4 255 0 0
0.22694 0.076679 -0.0051089 4 255 0 0
0.17249 0.079148 -0.0018668 4 255 0 0
0.097617 0.088055 -0.0041696 4 255 0 0
0.11824 0.088385 -0.00058581 4 255 0 0
0.28211 0.08326 0.00036711 29 0 0 255
0.24173 0.089097 -0.006219 29 0 0 255
0.27026 0.079006 -0.0034976 29 0 0 255
0.22334 0.076203 -0.0033059 4 255 0 0
0.12075 0.084983 -0.0041018 4 255 0 0
0.29732 0.090846 0.012154 29 0 0 255
0.24784 0.079663 -0.0056002 29 0 0 255
0.11312 0.08686 0.0026801 4 255 0 0
0.15812 0.07471 0.0024147 4 255 0 0
0.26139 0.085077 -0.0081013 29 0 0 255
0.12611 0.083702 -0.004067 4 255 0 0
0.27961 0.092713 -0.00074887 29 0 0 255
0.27707 0.090244 -0.0031684 29 0 0 255
0.091906 0.088071 -0.0047861 4 255 0 0
0.25928 0.089939 -0.0092139 29 0 0 255
0.084799 0.075295 0.00030562 4 255 0 0
0.25693 0.076594 -0.0083257 29 0 0 255
0.24641 0.068112 -0.0050189 29 0 0 255
0.20434 0.082154 0.0038235 4 255 0 0
0.12347 0.076494 0.0031323 4 255 0 0
0.16293 0.085134 0.0048481 4 255 0 0
0.24967 0.075528 -0.008874 29 0 0 255
0.14868 0.085622 0.0045645 4 255 0 0
0.11584 0.079404 0.0039907 4 255 0 0
0.25747 0.084041 -0.0059997 29 0 0 255
0.26409 0.091866 -0.0054112 29 0 0 255
0.15784 0.0788 -0.0021602 4 255 0 0
0.23236 0.08372 -0.0036132 4 255 0 0
0.22187 0.079786 0.00070236 4 255 0 0
0.14928 0.086178 0.00409 4 255 0 0
0.082452 0.084971 -0.00388 4 255 0 0
0.12413 0.088123 0.00082789 4 255 0 0
0.28281 0.077346 0.0034249 29 0 0 255
0.12511 0.083379 0.0049876 4 255 0 0
0.21072 0.082184 -0.003212 4 255 0 0
0.23569 0.07865 -0.0080102 29 0 0 255
0.17254 0.086627 0.0011707 4 255 0 0
0.15809 0.080075 -0.0024884 4 255 0 0
0.23007 0.081703 -0.00728 4 255 0 0
0.11446 0.08056 0.0045182 4 255 0 0
0.18072 0.076257 0.00011271 4 255 0 0
0.09499 0.08826 -0.0042012 4 255 0 0
0.21107 0.077079 0.0019913 4 255 0 0
0.15752 0.08507 -0.0017883 4 255 0 0
0.13372 0.082319 0.0054769 4 255 0 0
0.16629 0.082529 -0.0023269 4 255 0 0
0.12049 0.075944 -0.0031642 4 255 0 0
0.1909 0.080228 -0.00198 4 255 0 0
0.24707 0.068802 -0.0079529 29 0 0 255
0.24243 0.088064 -0.0061109 29 0 0 255
0.085698 0.085772 0.0010812 4 255 0 0
0.11933 0.078787 -0.004547 4 255 0 0
0.28638 0.083508 0.0041296 29 0 0 255
0.091953 0.079903 -0.0072846 4 255 0 0
0.18893 0.075978 0.0035002 4 255 0 0
0.10691 0.088735 -0.0015704 4 255 0 0
0.1049 0.087609 -0.0038436 4 255 0 0
0.27212 0.090803 -0.0053519 29 0 0 255
0.21314 0.084782 -0.0012534 4 255 0 0
0.087554 0.086709 0.0011871 4 255 0 0
0.16195 0.081189 -0.0025012 4 255 0 0
0.23248 0.083372 -0.0072947 4 255 0 0
0.14674 0.075231 0.0036867 4 255 0 0
0.1026 0.073141 0.0012305 4 255 0 0
0.26114 0.092243 -0.0085877 29 0 0 255
0.19949 0.079079 0.0039735 4 255 0 0
0.20794 0.082262 0.0033038 4 255 0 0
0.26624 0.082754 -0.0039848 29 0 0 255
0.24888 0.067959 -0.0049287 29 0 0 255
0.2155 0.084354 0.00047957 4 255 0 0
0.11623 0.073522 -0.00057528 4 255 0 0
0.24684 0.086173 -0.006303 29 0 0 255
0.27802 0.089099 -0.0019247 29 0 0 255
0.12347 0.087032 -0.0025688 4 255 0 0
0.17199 0.086678 0.0020819 4 255 0 0
0.21283 0.077886 -0.0027511 4 255 0 0
0.28019 0.089577 -0.0016434 29 0 0 255
0.26171 0.078908 -0.0053386 29 0 0 255
0.24335 0.083131 -0.0097513 29 0 0 255
0.1035 0.078028 0.0023158 4 255 0 0
0.096673 0.07765 0.0016324 4 255 0 0
0.22398 0.076232 -0.0014761 4 255 0 0
0.25791 0.085129 -0.0088697 29 0 0 255
0.093294 0.076449 0.00099807 4 255 0 0
0.13849 0.080053 0.0052267 4 255 0 0
0.3001 0.085271 0.013597 29 0 0 255
0.090676 0.078533 -0.0071851 4 255 0 0
0.19856 0.08198 -0.0022905 4 255 0 0
0.159 0.07485 0.0030401 4 255 0 0
0.082982 0.073135 -0.0018387 4 255 0 0
0.22001 0.083204 -0.0042874 4 255 0 0
0.1559 0.083818 -0.0023449 4 255 0 0
0.1792 0.083914 -0.0016663 4 255 0 0
0.086983 0.072295 -0.0022104 4 255 0 0
0.29054 0.077635 0.0066713 29 0 0 255
0.094809 0.075587 0.0012367 4 255 0 0
0.20642 0.077907 -0.0019668 4 255 0 0
0.16084 0.076249 -0.00054943 4 255 0 0
0.30072 0.092394 0.0141 29 0 0 255
0.12007 0.073477 0.0016416 4 255 0 0
0.14928 0.076333 -0.0011156 4 255 0 0
0.29356 0.084138 0.0087442 29 0 0 255
0.19405 0.077077 -0.00070073 4 255 0 0
0.12027 0.088328 -5.0149e-05 4 255 0 0
0.26488 0.076975 -0.0064637 29 0 0 255
0.20164 0.079075 -0.0021175 4 255 0 0
0.10618 0.086394 -0.004684 4 255 0 0
0.17662 0.086058 -0.00015177 4 255 0 0
0.12956 0.083556 -0.0038508 4 255 0 0
0.17417 0.077086 -0.0008173 4 255 0 0
0.17714 0.077139 0.0043532 4 255 0 0
0.11684 0.08317 -0.0049207 4 255 0 0
0.22865 0.076063 -0.0046121 4 255 0 0
0.1387 0.085166 0.0047024 4 255 0 0
0.17809 0.079154 -0.0017537 4 255 0 0
0.15276 0.082136 -0.0027471 4 255 0 0
0.24361 0.068915 -0.0050173 29 0 0 255
0.24409 0.068127 -0.0068059 29 0 0 255
0.12581 0.079494 0.0044528 4 255 0 0
0.28184 0.089332 -4.4278e-05 29 0 0 255
0.27249 0.092345 -0.0030007 29 0 0 255
0.13796 0.085752 -0.0023852 4 255 0 0
0.24054 0.081168 -0.004611 29 0 0 255
0.24997 0.074443 -0.0087257 29 0 0 255
0.28136 0.091088 -0.0010128 29 0 0 255
0.086864 0.08903 -0.0017527 4 255 0 0
0.088064 0.072508 -0.0027196 4 255 0 0
0.17005 0.077358 -0.0011245 4 255 0 0
0.29319 0.085043 0.0095383 29 0 0 255
0.16357 0.075977 -0.0001576 4 255 0 0
0.20149 0.076704 0.0030198 4 255 0 0
0.099612 0.075392 -0.0049277 4 255 0 0
0.27845 0.08532 -0.0018093 29 0 0 255
0.13827 0.077152 -0.0023941 4 255 0 0
0.2766 0.092298 -0.0030248 29 0 0 255
0.23825 0.080443 -0.0085789 29 0 0 255
0.27997 0.083213 0.0011291 29 0 0 255
0.21213 0.084573 -0.0018694 4 255 0 0
0.24802 0.086084 -0.010111 29 0 0 255
0.10419 0.082489 -0.006112 4 255 0 0
0.22503 0.082293 -0.0005345 4 255 0 0
0.085417 0.077329 -0.0073936 4 255 0 0
0.11085 0.083516 -0.0053591 4 255 0 0
0.27732 0.09171 -0.0006566 29 0 0 255
0.2145 0.084746 -0.0012645 4 255 0 0
0.26584 0.069244 -0.0027618 29 0 0 255
0.25937 0.067587 -0.0044709 29 0 0 255
0.27636 0.076758 0.00046244 29 0 0 255
0.20162 0.081206 -0.0024625 4 255 0 0
0.15899 0.074862 0.0016159 4 255 0 0
0.080309 0.078094 -0.0065503 4 255 0 0
0.28131 0.082985 0.00084395 29 0 0 255
0.28148 0.072688 0.0027184 29 0 0 255
0.29715 0.07391 0.013537 29 0 0 255
0.10057 0.075601 -0.0049583 4 255 0 0
0.08644 0.086495 0.0012147 4 255 0 0
0.24877 0.087997 -0.010228 29 0 0 255
0.22865 0.080945 -0.0012727 4 255 0 0
0.10739 0.072928 -0.00027682 4 255 0 0
0.16115 0.075412 0.0005403 4 255 0 0
0.10413 0.088837 -0.0015424 4 255 0 0
0.26143 0.077404 -0.0074356 29 0 0 255
0.21568 0.083546 -0.0033438 4 255 0 0
0.2795 0.070669 0.0023725 29 0 0 255
0.28181 0.089514 0.001071 29 0 0 255
0.17134 0.078909 -0.0018179 4 255 0 0
0.15789 0.077781 -0.0017389 4 255 0 0
0.24949 0.073718 -0.0086833 29 0 0 255
0.20333 0.082671 -0.0024401 4 255 0 0
0.11006 0.085173 -0.0049369 4 255 0 0
0.11232 0.07677 0.0024108 4 255 0 0
0.1083 0.086291 0.0028854 4 255 0 0
0.24308 0.085784 -0.0099085 29 0 0 255
0.15961 0.075178 0.00088303 4 255 0 0
0.15241 0.081146 -0.0027691 4 255 0 0
0.24475 0.087801 -0.010288 29 0 0 255
0.23668 0.085266 -0.0083312 29 0 0 255
0.25765 0.092226 -0.0094175 29 0 0 255
0.27519 0.08308 -0.00086047 29 0 0 255
0.21739 0.078496 -0.0038828 4 255 0 0
0.18386 0.075372 0.0019048 4 255 0 0
0.22193 0.081406 0.00060589 4 255 0 0
0.16183 0.078629 -0.001995 4 255 0 0
0.10723 0.07797 -0.0053888 4 255 0 0
0.26491 0.08319 -0.0070429 29 0 0 255
0.25715 0.075647 -0.0081326 29 0 0 255
0.25908 0.078368 -0.0078313 29 0 0 255
0.17763 0.084368 -0.0015098 4 255 0 0
0.18562 0.076179 0.003825 4 255 0 0
0.27211 0.088926 -0.0034542 29 0 0 255
0.30215 0.092281 0.015327 29 0 0 255
0.1938 0.075588 0.0019302 4 255 0 0
0.11847 0.08508 0.0041036 4 255 0 0
0.24528 0.08933 -0.0066298 29 0 0 255
0.132 0.085955 0.0040147 4 255 0 0
0.14206 0.077734 0.0038865 4 255 0 0
0.26287 0.077979 -0.0041713 29 0 0 255
0.17947 0.082697 0.0055893 4 255 0 0
0.24119 0.079748 -0.0090457 29 0 0 255
0.12896 0.073817 0.00098179 4 255 0 0
0.2719 0.082398 -0.0039644 29 0 0 255
0.27962 0.09142 -0.0018401 29 0 0 255
0.28873 0.070968 0.005876 29 0 0 255
0.10161 0.08719 -0.0045642 4 255 0 0
0.20275 0.076681 -0.00069271 4 255 0 0
0.14121 0.087273 0.0026144 4 255 0 0
0.23167 0.080803 -0.0076905 4 255 0 0
0.27766 0.085347 -3.4373e-05 29 0 0 255
0.27477 0.072455 -0.00038286 29 0 0 255
0.20997 0.075974 0.00032777 4 255 0 0
0.27162 0.089719 -0.0028417 29 0 0 255
0.086805 0.077165 0.00060625 4 255 0 0
0.23294 0.075509 -0.0061531 29 0 0 255
0.22547 0.079852 -0.00027917 4 255 0 0
0.10732 0.08368 -0.0056352 4 255 0 0
0.24984 0.07824 -0.0054664 29 0 0 255
0.23545 0.073436 -0.0059042 29 0 0 255
0.17383 0.076467 0.0042739 4 255 0 0
0.12204 0.078949 -0.0043636 4 255 0 0
0.19141 0.076254 0.0002046 4 255 0 0
0.14603 0.075339 -0.00020322 4 255 0 0
0.20963 0.083613 -0.0025939 4 255 0 0
0.29919 0.074118 0.015017 29 0 0 255
0.21905 0.083041 0.00075233 4 255 0 0
0.11572 0.083156 -0.0050189 4 255 0 0
0.24465 0.071538 -0.0047208 29 0 0 255
0.29664 0.072102 0.013126 29 0 0 255
0.083652 0.078028 -0.007791 4 255 0 0
0.18112 0.07722 0.0043153 4 255 0 0
0.090875 0.088605 -0.00060874 4 255 0 0
0.16864 0.082734 0.0057934 4 255 0 0
0.11794 0.073319 0.00057878 4 255 0 0
0.25532 0.069869 -0.0047577 29 0 0 255
0.24785 0.092193 -0.010023 29 0 0 255
0.11541 0.087762 0.0017555 4 255 0 0
0.28751 0.090428 0.0026589 29 0 0 255
0.25251 0.068353 -0.0048074 29 0 0 255
0.15565 0.07739 -0.0015879 4 255 0 0
0.19235 0.076239 0.003481 4 255 0 0
0.11452 0.078601 0.0033154 4 255 0 0
0.27515 0.076753 -0.0026063 29 0 0 255
0.25298 0.084327 -0.0094723 29 0 0 255
0.19531 0.078574 -0.0016192 4 255 0 0
0.17048 0.084386 0.0051888 4 255 0 0
0.28508 0.070203 0.0041871 29 0 0 255
0.11462 0.086277 0.0032057 4 255 0 0
0.29885 0.0919 0.011891 29 0 0 255
0.24049 0.079254 -0.0044127 29 0 0 255
0.26075 0.081633 -0.0065352 29 0 0 255
0.29318 0.078397 0.010186 29 0 0 255
0.25917 0.07475 -0.0065903 29 0 0 255
0.29652 0.086027 0.01199 29 0 0 255
0.079798 0.082167 -0.0078227 4 255 0 0
0.13282 0.076871 0.0035704 4 255 0 0
0.12411 0.0773 0.0030903 4 255 0 0
0.1948 0.085812 0.001301 4 255 0 0
0.17884 0.083689 0.0052905 4 255 0 0
0.11622 0.088254 0.00081672 4 255 0 0
0.15304 0.078013 0.0041758 4 255 0 0
0.2594 0.06775 -0.0063048 29 0 0 255
0.28471 0.077035 0.0026765 29 0 0 255
0.17694 0.086455 0.0026316 4 255 0 0
0.27036 0.090763 -0.0033761 29 0 0 255
0.113 0.082977 0.0045196 4 255 0 0
0.084162 0.077772 -0.00042938 4 255 0 0
0.13621 0.074468 0.00028617 4 255 0 0
0.13519 0.086681 0.0034545 4 255 0 0
0.27617 0.07611 -0.00095066 29 0 0 255
0.11986 0.07397 0.0024783 4 255 0 0
0.098908 0.076559 -0.005658 4 255 0 0
0.095442 0.073555 -0.0036101 4 255 0 0
0.25133 0.08472 -0.0096718 29 0 0 255
0.23104 0.076667 -0.0062929 4 255 0 0
0.18129 0.086278 0.002687 4 255 0 0
0.11969 0.087714 0.00191 4 255 0 0
0.29411 0.090363 0.0090341 29 0 0 255
0.11185 0.073235 -0.00052949 4 255 0 0
0.087008 0.085725 0.0017449 4 255 0 0
0.13511 0.082123 0.0055379 4 255 0 0
0.24329 0.078337 -0.0050401 29 0 0 255
0.23864 0.081309 -0.0087184 29 0 0 255
0.081038 0.077729 -0.0053481 4 255 0 0
0.27366 0.089126 -0.0046454 29 0 0 255
0.28382 0.07114 0.0044213 29 0 0 255
0.12009 0.080158 -0.004742 4 255 0 0
0.2833 0.079233 0.0033659 29 0 0 255
0.19386 0.078786 -0.0016704 4 255 0 0
0.19419 0.081785 -0.002128 4 255 0 0
0.15574 0.085617 0.0045647 4 255 0 0
0.13562 0.085481 0.0044492 4 255 0 0
0.22714 0.081061 -0.00083323 4 255 0 0
0.28482 0.07937 0.003228 29 0 0 255
0.13024 0.087963 0.00056833 4 255 0 0
0.25627 0.076351 -0.005289 29 0 0 255
0.12335 0.073534 0.0014053 4 255 0 0
0.27771 0.077875 -0.0016365 29 0 0 255
0.25874 0.075544 -0.0077479 29 0 0 255
0.29172 0.077717 0.008018 29 0 0 255
0.18296 0.077904 -0.0011748 4 255 0 0
0.24647 0.087116 -0.0063976 29 0 0 255
0.27904 0.079111 -0.0003132 29 0 0 255
0.23625 0.083291 -0.0083911 29 0 0 255
0.28964 0.084002 0.0049017 29 0 0 255
0.22137 0.079343 -0.0050482 4 255 0 0
0.23812 0.082083 -0.0086764 29 0 0 255
0.28214 0.077599 0.00060489 29 0 0 255
0.26028 0.09051 -0.0060921 29 0 0 255
0.085677 0.072305 -0.00065988 4 255 0 0
0.12834 0.085132 -0.0034259 4 255 0 0
0.28308 0.083131 0.0017981 29 0 0 255
0.25365 0.073419 -0.0080989 29 0 0 255
0.18613 0.084035 -0.0015242 4 255 0 0
0.11796 0.07609 0.0028868 4 255 0 0
0.24936 0.072273 -0.0047735 29 0 0 255
0.25784 0.070387 -0.0044819 29 0 0 255
0.25026 0.092998 -0.0093452 29 0 0 255
0.22598 0.076726 -0.0014569 4 255 0 0
0.1044 0.072984 0.00099814 4 255 0 0
0.2222 0.081113 -0.0053885 4 255 0 0
0.25363 0.070586 -0.00792 29 0 0 255
0.19469 0.079553 -0.0019233 4 255 0 0
0.25759 0.068078 -0.004608 29 0 0 255
0.27263 0.085375 -0.002409 29 0 0 255
0.12208 0.088202 -0.00062767 4 255 0 0
0.088564 0.088592 -0.00072724 4 255 0 0
0.14959 0.085416 0.0047269 4 255 0 0
0.26604 0.078663 -0.0058717 29 0 0 255
0.29986 0.086213 0.013602 29 0 0 255
0.10131 0.088824 -0.00077253 4 255 0 0
0.15555 0.086248 -0.00098572 4 255 0 0
0.10616 0.072892 0.00065483 4 255 0 0
0.11729 0.073628 -0.000642 4 255 0 0
0.26754 0.090173 -0.0069811 29 0 0 255
0.25316 0.078063 -0.0055004 29 0 0 255
0.20157 0.084283 -0.0016346 4 255 0 0
0.1252 0.080194 0.0048511 4 255 0 0
0.095441 0.07255 -0.001456 4 255 0 0
0.092514 0.089122 -0.0021219 4 255 0 0
0.24917 0.087005 -0.0064277 29 0 0 255
0.25053 0.073135 -0.008516 29 0 0 255
0.24298 0.068532 -0.0065981 29 0 0 255
0.099009 0.079095 0.0028301 4 255 0 0
0.26431 0.076036 -0.00644 29 0 0 255
0.24979 0.083571 -0.0096978 29 0 0 255
0.097738 0.088961 -0.0023923 4 255 0 0
0.22385 0.082928 -0.00051111 4 255 0 0
0.14928 0.077813 0.0040967 4 255 0 0
0.2477 0.091307 -0.010314 29 0 0 255
0.23235 0.079531 -0.007715 4 255 0 0
0.16027 0.08019 0.0056205 4 255 0 0
0.12806 0.08017 0.0049518 4 255 0 0
0.144 0.074464 0.0027489 4 255 0 0
0.30227 0.074034 0.018879 29 0 0 255
0.1319 0.082249 -0.0038865 4 255 0 0
0.12982 0.078436 -0.0035941 4 255 0 0
0.25723 0.093415 -0.0083128 29 0 0 255
0.27393 0.083571 -0.003936 29 0 0 255
0.24067 0.078053 -0.0043713 29 0 0 255
0.1715 0.078055 0.0043619 4 255 0 0
0.25907 0.074882 -0.0054973 29 0 0 255
0.19099 0.082625 -0.0019694 4 255 0 0
0.24682 0.090199 -0.010432 29 0 0 255
0.20882 0.084053 -0.0022292 4 255 0 0
0.18605 0.077311 0.0042039 4 255 0 0
0.21561 0.07992 0.0021354 4 255 0 0
0.16227 0.083552 0.0056271 4 255 0 0
0.29815 0.091954 0.011216 29 0 0 255
0.13505 0.077037 -0.0025729 4 255 0 0
0.28382 0.085438 0.0029136 29 0 0 255
0.26673 0.082067 -0.0045268 29 0 0 255
0.10165 0.076608 0.0016632 4 255 0 0
0.097511 0.088682 -0.00040493 4 255 0 0
0.088001 0.073521 -0.0045303 4 255 0 0
0.27825 0.078388 0.0012721 29 0 0 255
0.12952 0.087334 -0.0016167 4 255 0 0
0.24635 0.078747 -0.0094632 29 0 0 255
0.27671 0.078163 0.0006242 29 0 0 255
0.084072 0.078683 -0.00065305 4 255 0 0
0.26005 0.091989 -0.0063726 29 0 0 255
0.28412 0.084596 0.0033744 29 0 0 255
0.25903 0.085054 -0.0059334 29 0 0 255
0.16276 0.077919 0.0042854 4 255 0 0
0.13828 0.075224 0.0036289 4 255 0 0
0.28794 0.071034 0.005201 29 0 0 255
0.26128 0.088375 -0.0073307 29 0 0 255
0.09504 0.077222 -0.00634 4 255 0 0
0.085891 0.084367 0.0015704 4 255 0 0
0.23386 0.084001 -0.007651 29 0 0 255
0.10134 0.07271 0.00027011 4 255 0 0
0.24416 0.068678 -0.0074944 29 0 0 255
0.19862 0.083892 -0.0017673 4 255 0 0
0.11356 0.088557 -0.00060705 4 255 0 0
0.24178 0.087969 -0.0096363 29 0 0 255
0.13596 0.07755 0.0036462 4 255 0 0
0.11226 0.088203 -0.0022442 4 255 0 0
0.28974 0.072725 0.0081326 29 0 0 255
0.17795 0.076457 0.0042062 4 255 0 0
0.22289 0.080228 -0.0055542 4 255 0 0
0.28377 0.085347 0.00074042 29 0 0 255
0.18822 0.077401 -0.0008469 4 255 0 0
0.098566 0.077345 0.0015897 4 255 0 0
0.26837 0.088815 -0.004631 29 0 0 255
0.14128 0.074872 0.00011508 4 255 0 0
0.26789 0.085125 -0.0037595 29 0 0 255
0.17227 0.075698 0.00059138 4 255 0 0
0.14341 0.084241 -0.002746 4 255 0 0
0.15177 0.081982 -0.0027913 4 255 0 0
0.12771 0.075697 -0.0022856 4 255 0 0
0.25462 0.072949 -0.005782 29 0 0 255
0.30401 0.079515 0.018349 29 0 0 255
0.22561 0.08301 -0.0056269 4 255 0 0
0.10938 0.076936 -0.00478 4 255 0 0
0.1503 0.076462 0.004208 4 255 0 0
0.13936 0.086858 -0.0012979 4 255 0 0
0.11455 0.086738 -0.0036527 4 255 0 0
0.095254 0.076436 0.0011565 4 255 0 0
0.27429 0.069589 -0.0019237 29 0 0 255
0.26539 0.078928 -0.0043845 29 0 0 255
0.26808 0.078985 -0.0037824 29 0 0 255
0.11066 0.073694 0.0020507 4 255 0 0
0.24557 0.07157 -0.0085837 29 0 0 255
0.26958 0.078005 -0.0051011 29 0 0 255
0.10784 0.084288 0.0038874 4 255 0 0
0.27662 0.07913 -0.00093732 29 0 0 255
0.29076 0.071454 0.0072188 29 0 0 255
0.14796 0.078642 0.0042692 4 255 0 0
0.28283 0.085574 0.0013961 29 0 0 255
0.11466 0.084722 0.0040878 4 255 0 0
0.1596 0.086985 0.002449 4 255 0 0
0.17219 0.08419 -0.0017249 4 255 0 0
0.26472 0.088904 -0.0076765 29 0 0 255
0.25402 0.086048 -0.0094532 29 0 0 255
0.082175 0.088463 -0.0049078 4 255 0 0
0.30405 0.091858 0.017063 29 0 0 255
0.14544 0.082433 -0.0030305 4 255 0 0
0.14779 0.085318 -0.0020303 4 255 0 0
0.28726 0.077575 0.0058604 29 0 0 255
0.094056 0.088836 -0.0009275 4 255 0 0
0.27617 0.07708 -0.0022444 29 0 0 255
0.28261 0.071479 0.0017286 29 0 0 255
0.27268 0.09285 -0.0038003 29 0 0 255
0.23043 0.082854 -0.0068396 4 255 0 0
0.25111 0.092843 -0.0095523 29 0 0 255
0.17984 0.080656 0.0056464 4 255 0 0
0.11701 0.079223 -0.0048436 4 255 0 0
0.17487 0.086597 0.0017311 4 255 0 0
0.163 0.075339 0.00074893 4 255 0 0
0.085571 0.072815 0.00012938 4 255 0 0
0.27049 0.078254 -0.004765 29 0 0 255
0.25096 0.08831 -0.010065 29 0 0 255
0.25589 0.067054 -0.0052757 29 0 0 255
0.15019 0.076922 -0.0015236 4 255 0 0
0.23905 0.085078 -0.004792 29 0 0 255
0.19851 0.078051 0.0036568 4 255 0 0
0.29022 0.079486 0.007917 29 0 0 255
0.19029 0.085844 0.0003833 4 255 0 0
0.17039 0.085297 0.0045859 4 255 0 0
0.15665 0.086893 0.00017588 4 255 0 0
0.2576 0.091776 -0.0068067 29 0 0 255
0.17826 0.083075 -0.0019326 4 255 0 0
0.27586 0.079104 -0.00047689 29 0 0 255
0.15723 0.084863 0.0050762 4 255 0 0
0.26868 0.075589 -0.0043787 29 0 0 255
0.25391 0.092778 -0.0095526 29 0 0 255
0.23203 0.078099 -0.0022335 4 255 0 0
0.081113 0.07959 -0.0054212 4 255 0 0
0.14459 0.077425 -0.0021215 4 255 0 0
0.26993 0.069325 -0.0015728 29 0 0 255
0.08605 0.072278 -0.0023388 4 255 0 0
0.11827 0.083491 -0.0047342 4 255 0 0
0.28192 0.07665 0.00203 29 0 0 255
0.11552 0.084955 0.0040327 4 255 0 0
0.095945 0.079153 0.0026596 4 255 0 0
0.26703 0.085425 -0.0051012 29 0 0 255
0.12611 0.078675 0.0038 4 255 0 0
0.26388 0.071016 -0.0059787 29 0 0 255
0.30286 0.09251 0.016651 29 0 0 255
0.25556 0.066995 -0.0064265 29 0 0 255
0.17952 0.075361 0.0031674 4 255 0 0
0.27008 0.069322 -0.0036442 29 0 0 255
0.23795 0.0864 -0.0085756 29 0 0 255
0.23426 0.074379 -0.0059237 29 0 0 255
0.08704 0.078785 0.0017297 4 255 0 0
0.16432 0.076636 -0.00078794 4 255 0 0
0.29887 0.09249 0.013007 29 0 0 255
0.19472 0.077647 -0.0011214 4 255 0 0
0.2381 0.08525 -0.0046205 29 0 0 255
0.095026 0.087538 0.0010362 4 255 0 0
0.088466 0.079779 -0.0076262 4 255 0 0
0.13968 0.087167 0.0028205 4 255 0 0
0.26253 0.08323 -0.0077023 29 0 0 255
0.26568 0.084354 -0.006987 29 0 0 255
0.17093 0.075524 0.0037231 4 255 0 0
0.10644 0.082333 0.0042203 4 255 0 0
0.084814 0.072452 -0.00040068 4 255 0 0
0.21876 0.081876 -0.0045427 4 255 0 0
0.24487 0.080427 -0.0096392 29 0 0 255
0.25637 0.085506 -0.0082771 29 0 0 255
0.2595 0.069574 -0.0069143 29 0 0 255
0.27 0.072104 -0.001648 29 0 0 255
0.2224 0.079526 -0.0053418 4 255 0 0
0.26309 0.088473 -0.007574 29 0 0 255
0.24265 0.079446 -0.0092811 29 0 0 255
0.23496 0.08646 -0.0064228 29 0 0 255
0.25685 0.075331 -0.0052868 29 0 0 255
0.29549 0.091234 0.010745 29 0 0 255
0.16921 0.081689 0.005897 4 255 0 0
0.14619 0.081346 0.0058292 4 255 0 0
0.097314 0.078246 0.0020925 4 255 0 0
0.084636 0.073311 0.00031329 4 255 0 0
0.086428 0.082929 -0.0077939 4 255 0 0
0.14161 0.086501 -0.0015188 4 255 0 0
0.18059 0.077959 0.0043449 4 255 0 0
0.19122 0.083837 0.0045704 4 255 0 0
0.12599 0.081387 0.0051997 4 255 0 0
0.24875 0.080722 -0.0094946 29 0 0 255
0.23715 0.080024 -0.0034912 29 0 0 255
0.29299 0.073404 0.0091471 29 0 0 255
0.17543 0.079314 -0.0018513 4 255 0 0
0.088882 0.077723 0.001119 4 255 0 0
0.15849 0.077432 0.0042711 4 255 0 0
0.086059 0.078838 0.0016537 4 255 0 0
0.093184 0.078711 -0.0069696 4 255 0 0
0.092396 0.084559 0.0027105 4 255 0 0
0.22418 0.0786 -0.00012194 4 255 0 0
0.13172 0.078605 -0.0035021 4 255 0 0
0.14437 0.079277 0.0047677 4 255 0 0
0.1844 0.080129 0.0053491 4 255 0 0
0.28806 0.092348 0.0034465 29 0 0 255
0.083114 0.084476 -0.0078069 4 255 0 0
0.24959 0.084717 -0.0098358 29 0 0 255
0.23609 0.080014 -0.0031739 29 0 0 255
0.26954 0.076796 -0.0021461 29 0 0 255
0.28654 0.07879 0.0054925 29 0 0 255
0.13254 0.078593 0.0039254 4 255 0 0
0.27281 0.083489 -0.0043931 29 0 0 255
0.17378 0.079455 0.0051218 4 255 0 0
0.22955 0.076627 -0.0057564 4 255 0 0
0.24999 0.081612 -0.009476 29 0 0 255
0.098982 0.080051 -0.0066045 4 255 0 0
0.13376 0.082928 -0.003663 4 255 0 0
0.19209 0.07856 0.0041596 4 255 0 0
0.11129 0.086785 0.0026556 4 255 0 0
0.18632 0.08072 -0.0019975 4 255 0 0
0.1554 0.087145 0.0018565 4 255 0 0
0.22262 0.077404 -0.0044979 4 255 0 0
0.25317 0.07987 -0.0057624 29 0 0 255
0.1427 0.076841 0.0039992 4 255 0 0
0.23941 0.08596 -0.0050584 29 0 0 255
0.10327 0.076396 -0.0051378 4 255 0 0
0.14989 0.082257 -0.0028441 4 255 0 0
0.086281 0.08199 0.0023804 4 255 0 0
0.24131 0.086446 -0.0095229 29 0 0 255
0.16228 0.086599 0.0033793 4 255 0 0
0.21922 0.077654 -0.0038298 4 255 0 0
0.1484 0.08671 -0.0007924 4 255 0 0
0.27521 0.089036 -0.0023793 29 0 0 255
0.18908 0.085491 0.0034484 4 255 0 0
0.19187 0.080133 0.0050185 4 255 0 0
0.10262 0.077165 0.001811 4 255 0 0
0.099984 0.08837 -0.0034835 4 255 0 0
0.11532 0.076488 -0.0039955 4 255 0 0
0.252 0.075212 -0.0086199 29 0 0 255
0.29381 0.084287 0.0095759 29 0 0 255
0.19298 0.085717 0.0025541 4 255 0 0
0.16527 0.076447 0.004291 4 255 0 0
0.24107 0.073376 -0.0080571 29 0 0 255
0.15297 0.080035 0.0055076 4 255 0 0
0.14806 0.080566 -0.0028934 4 255 0 0
0.11692 0.0876 0.0020224 4 255 0 0
0.098865 0.083125 0.003605 4 255 0 0
0.14909 0.083373 0.0056597 4 255 0 0
0.21366 0.078174 0.0019822 4 255 0 0
0.081428 0.087179 -0.0057962 4 255 0 0
0.12032 0.088022 0.0013369 4 255 0 0
0.17239 0.080684 0.0057812 4 255 0 0
0.087038 0.078549 -0.0075683 4 255 0 0
0.23859 0.076904 -0.003773 29 0 0 255
0.1691 0.077877 -0.0014529 4 255 0 0
0.12831 0.073982 0.0024004 4 255 0 0
0.08282 0.084438 -0.0032372 4 255 0 0
0.27698 0.084706 -1.1148e-05 29 0 0 255
0.28888 0.085577 0.006127 29 0 0 255
0.16336 0.075339 0.0036605 4 255 0 0
0.084842 0.07687 0.00024653 4 255 0 0
0.14318 0.075554 0.0038734 4 255 0 0
0.26731 0.069081 -0.0023781 29 0 0 255
0.205 0.083708 -0.0021742 4 255 0 0
0.13066 0.086461 0.0035762 4 255 0 0
0.094424 0.087109 -0.0053613 4 255 0 0
0.27092 0.072227 -0.0015407 29 0 0 255
0.10696 0.074227 0.0022429 4 255 0 0
0.13847 0.086825 -0.0014215 4 255 0 0
0.2444 0.082816 -0.0098535 29 0 0 255
0.096709 0.089026 -0.0020082 4 255 0 0
0.10247 0.076072 0.0017757 4 255 0 0
0.10401 0.086647 -0.0047324 4 255 0 0
0.16475 0.078761 -0.0019526 4 255 0 0
0.14432 0.084854 -0.0024505 4 255 0 0
0.13343 0.080877 0.0053819 4 255 0 0
0.13002 0.077426 0.0033842 4 255 0 0
0.12695 0.079135 0.0042221 4 255 0 0
0.28444 0.083405 0.0016575 29 0 0 255
0.13935 0.074807 7.0245e-06 4 255 0 0
0.25106 0.081584 -0.0093617 29 0 0 255
0.28776 0.083708 0.0051958 29 0 0 255
0.28414 0.090588 0.00046234 29 0 0 255
0.24136 0.082035 -0.0092931 29 0 0 255
0.14711 0.076612 -0.0014397 4 255 0 0
0.17848 0.076958 -0.00062229 4 255 0 0
0.22432 0.08016 6.2759e-05 4 255 0 0
0.1433 0.080938 -0.0031724 4 255 0 0
0.10633 0.079632 -0.0058546 4 255 0 0
0.28771 0.085518 0.0053427 29 0 0 255
0.14764 0.087282 0.00058347 4 255 0 0
0.25894 0.068573 -0.006778 29 0 0 255
0.20672 0.07608 0.0017047 4 255 0 0
0.27195 0.070558 -0.00078317 29 0 0 255
0.14733 0.075307 -6.0883e-05 4 255 0 0
0.2461 0.073145 -0.0048061 29 0 0 255
0.26808 0.085402 -0.0051595 29 0 0 255
0.15401 0.085327 0.0047962 4 255 0 0
0.26944 0.070686 -0.0016601 29 0 0 255
0.29094 0.072742 0.0090134 29 0 0 255
0.29916 0.091591 0.014094 29 0 0 255
0.16801 0.086746 0.0025961 4 255 0 0
0.096124 0.074033 0.001521 4 255 0 0
0.19038 0.075699 0.0030204 4 255 0 0
0.28618 0.070837 0.0040213 29 0 0 255
0.18585 0.078556 0.0043664 4 255 0 0
0.17794 0.075987 0.00037209 4 255 0 0
0.13621 0.074104 0.0013865 4 255 0 0
0.10682 0.075634 -0.0043262 4 255 0 0
0.27807 0.090975 -0.0026577 29 0 0 255
0.27053 0.075872 -0.0021706 29 0 0 255
0.25729 0.071124 -0.0046374 29 0 0 255
0.24027 0.082237 -0.0090931 29 0 0 255
0.13728 0.074396 0.00058271 4 255 0 0
0.153 0.076514 0.0042507 4 255 0 0
0.18383 0.077835 -0.0011303 4 255 0 0
0.19418 0.076267 0.00016521 4 255 0 0
0.14742 0.081385 0.0058562 4 255 0 0
0.24987 0.08215 -0.0059212 29 0 0 255
0.14538 0.086348 0.0039026 4 255 0 0
0.08159 0.084784 -0.0052276 4 255 0 0
0.26941 0.078648 -0.0025237 29 0 0 255
0.28224 0.070952 0.0036232 29 0 0 255
0.28019 0.072177 0.00071216 29 0 0 255
0.15447 0.087162 0.0019928 4 255 0 0
0.13388 0.07422 0.00053199 4 255 0 0
0.13491 0.087257 0.002707 4 255 0 0
0.10823 0.08623 -0.0045812 4 255 0 0
0.14762 0.086201 0.0040668 4 255 0 0
0.27924 0.082869 0.00013616 29 0 0 255
0.24634 0.082725 -0.009868 29 0 0 255
0.10235 0.086161 0.00262 4 255 0 0
0.096471 0.0731 -0.0027355 4 255 0 0
0.26136 0.088575 -0.0064914 29 0 0 255
0.10681 0.077524 0.0021993 4 255 0 0
0.18802 0.078536 0.0043144 4 255 0 0
0.15097 0.078063 0.0041464 4 255 0 0
0.19102 0.082721 0.0050134 4 255 0 0
0.14754 0.0868 -0.00071882 4 255 0 0
0.13838 0.074868 -0.00020329 4 255 0 0
0.143 0.076131 -0.0013408 4 255 0 0
0.26348 0.06775 -0.0039205 29 0 0 255
0.20967 0.076945 0.0021265 4 255 0 0
0.10283 0.081509 -0.0062936 4 255 0 0
0.24578 0.080078 -0.0096153 29 0 0 255
0.24045 0.090267 -0.008585 29 0 0 255
0.23153 0.07563 -0.0046003 4 255 0 0
0.25801 0.074772 -0.0072349 29 0 0 255
0.28889 0.09128 0.0035476 29 0 0 255
0.27056 0.082201 -0.0037716 29 0 0 255
0.12807 0.07498 -0.0014948 4 255 0 0
0.23067 0.079542 -0.0017244 4 255 0 0
0.23264 0.082486 -0.0076897 29 0 0 255
0.2917 0.071394 0.0080461 29 0 0 255
0.1776 0.085142 -0.0010709 4 255 0 0
0.11363 0.084697 0.004051 4 255 0 0
0.16938 0.085074 0.0047914 4 255 0 0
0.19549 0.084245 0.0039548 4 255 0 0
0.092583 0.078378 0.0018669 4 255 0 0
0.12021 0.073967 -0.00093585 4 255 0 0
0.24956 0.071905 -0.0084478 29 0 0 255
0.1117 0.081894 0.0045359 4 255 0 0
0.15182 0.086833 0.0032756 4 255 0 0
0.12443 0.087131 0.002762 4 255 0 0
0.26621 0.078438 -0.0034205 29 0 0 255
0.16668 0.078212 0.0043503 4 255 0 0
0.094003 0.083975 0.0030344 4 255 0 0
0.11419 0.079358 0.0038842 4 255 0 0
0.27225 0.068986 -0.0025258 29 0 0 255
0.17448 0.085058 0.0046659 4 255 0 0
0.083212 0.083255 -0.0080648 4 255 0 0
0.25881 0.092915 -0.0088355 29 0 0 255
0.11721 0.082098 0.0048246 4 255 0 0
0.26211 0.092665 -0.0081539 29 0 0 255
0.17429 0.077961 -0.001352 4 255 0 0
0.24521 0.086713 -0.0062906 29 0 0 255
0.10783 0.081499 0.0043007 4 255 0 0
0.17174 0.076828 -0.00069585 4 255 0 0
0.10849 0.087591 -0.0034846 4 255 0 0
0.11767 0.077149 0.0027411 4 255 0 0
0.26707 0.072072 -0.0037151 29 0 0 255
0.16965 0.075481 0.0037084 4 255 0 0
0.19423 0.085086 0.0033748 4 255 0 0
0.15373 0.078604 0.0043364 4 255 0 0
0.17982 0.084883 -0.0011834 4 255 0 0
0.23245 0.07983 -0.0021372 4 255 0 0
0.093545 0.072745 0.00042828 4 255 0 0
0.17965 0.077128 -0.00072534 4 255 0 0
0.10069 0.085639 0.0028298 4 255 0 0
0.1761 0.075188 0.0019232 4 255 0 0
0.30286 0.086153 0.018307 29 0 0 255
0.15991 0.077974 -0.0017691 4 255 0 0
0.15405 0.081625 0.005929 4 255 0 0
0.14414 0.079477 -0.0029051 4 255 0 0
0.20629 0.075965 0.0003878 4 255 0 0
0.13198 0.087868 0.0010021 4 255 0 0
0.28821 0.092491 0.0043085 29 0 0 255
0.25985 0.091905 -0.0089804 29 0 0 255
0.23468 0.073728 -0.0051579 29 0 0 255
0.20987 0.085011 -0.00049719 4 255 0 0
0.18591 0.08211 0.0054349 4 255 0 0
0.26344 0.070367 -0.0033049 29 0 0 255
0.30195 0.091232 0.016131 29 0 0 255
0.19633 0.080929 -0.0021981 4 255 0 0
0.29444 0.084852 0.0083093 29 0 0 255
0.29462 0.079382 0.011353 29 0 0 255
0.23072 0.079304 -0.0074229 4 255 0 0
0.19012 0.085076 0.0037982 4 255 0 0
0.24305 0.074768 -0.0087739 29 0 0 255
0.23856 0.07454 -0.0038355 29 0 0 255
0.11467 0.080785 -0.0052369 4 255 0 0
0.13294 0.084193 -0.0034359 4 255 0 0
0.16741 0.078875 0.0046139 4 255 0 0
0.10988 0.07625 0.0023045 4 255 0 0
0.11628 0.076235 0.0027472 4 255 0 0
0.11766 0.076628 -0.0038528 4 255 0 0
0.26923 0.069459 -0.0040264 29 0 0 255
0.15654 0.085788 -0.0013628 4 255 0 0
0.096796 0.080987 0.0034965 4 255 0 0
0.1379 0.081586 0.0056171 4 255 0 0
0.09838 0.086293 -0.005501 4 255 0 0
0.26111 0.088931 -0.0086719 29 0 0 255
0.11979 0.082639 0.0048949 4 255 0 0
0.097508 0.075412 -0.0051757 4 255 0 0
0.13884 0.078639 -0.0029972 4 255 0 0
0.28746 0.07897 0.006064 29 0 0 255
0.231 0.0785 -0.0072836 4 255 0 0
0.094196 0.087843 0.00067167 4 255 0 0
0.13049 0.0752 -0.0015161 4 255 0 0
0.30011 0.07325 0.015064 29 0 0 255
0.17837 0.080494 0.0056531 4 255 0 0
0.27416 0.085392 -0.0032406 29 0 0 255
0.083851 0.072648 -0.00061793 4 255 0 0
0.094924 0.07297 0.00076878 4 255 0 0
0.094499 0.07256 6.9895e-05 4 255 0 0
0.17933 0.076455 -0.00014731 4 255 0 0
0.30153 0.080267 0.015734 29 0 0 255
0.13167 0.087519 -0.0010671 4 255 0 0
0.13772 0.087364 0.0024961 4 255 0 0
0.22542 0.077229 -0.00096127 4 255 0 0
0.11566 0.073274 0.00016104 4 255 0 0
0.25995 0.068832 -0.0065979 29 0 0 255
0.23425 0.07436 -0.0040481 29 0 0 255
0.20706 0.082849 -0.0026678 4 255 0 0
0.23618 0.087473 -0.0061057 29 0 0 255
0.2548 0.093295 -0.0089583 29 0 0 255
0.26269 0.090862 -0.0083653 29 0 0 255
0.10971 0.087484 0.0019101 4 255 0 0
0.1016 0.088846 -0.0021433 4 255 0 0
0.23643 0.073985 -0.0037261 29 0 0 255
0.18406 0.076618 0.0041152 4 255 0 0
0.28192 0.085552 0.0014348 29 0 0 255
0.21838 0.084396 -0.0025861 4 255 0 0
0.12613 0.08506 0.0044076 4 255 0 0
0.10991 0.08281 -0.0055592 4 255 0 0
0.24884 0.088558 -0.0065891 29 0 0 255
0.11972 0.088227 -0.0010477 4 255 0 0
0.24593 0.074116 -0.0089512 29 0 0 255
0.11034 0.073073 0.0010384 4 255 0 0
0.25305 0.072295 -0.008191 29 0 0 255
0.1027 0.074505 -0.0038302 4 255 0 0
0.26589 0.083231 -0.0067706 29 0 0 255
0.15681 0.08408 -0.0022351 4 255 0 0
0.26714 0.070005 -0.0023682 29 0 0 255
0.21896 0.079977 -0.0046074 4 255 0 0
0.12144 0.077421 -0.0039004 4 255 0 0
0.27187 0.077837 -0.004252 29 0 0 255
0.12852 0.079363 -0.0039448 4 255 0 0
0.12696 0.085837 0.0039714 4 255 0 0
0.15016 0.08698 -0.00016504 4 255 0 0
0.20844 0.085095 -0.00020674 4 255 0 0
0.29419 0.092163 0.0092998 29 0 0 255
0.13115 0.080913 -0.0039552 4 255 0 0
0.16761 0.086684 0.00062678 4 255 0 0
0.13725 0.077794 0.0037165 4 255 0 0
0.23271 0.078817 -0.0022439 29 0 0 255
0.27786 0.084409 0.00041184 29 0 0 255
0.28338 0.076795 0.0026512 29 0 0 255
0.19993 0.083586 0.0038385 4 255 0 0
0.26446 0.078379 -0.0038747 29 0 0 255
0.11159 0.087501 0.0019744 4 255 0 0
0.23323 0.079656 -0.0078417 29 0 0 255
0.10745 0.088479 0.00028716 4 255 0 0
0.29709 0.08597 0.010677 29 0 0 255
0.2009 0.075852 0.0020661 4 255 0 0
0.08884 0.073751 0.00091885 4 255 0 0
0.12295 0.084446 -0.0041113 4 255 0 0
0.11419 0.077526 -0.0045965 4 255 0 0
0.10766 0.074206 -0.0029036 4 255 0 0
0.23787 0.073932 -0.0037995 29 0 0 255
0.24462 0.073891 -0.0048115 29 0 0 255
0.14328 0.079774 -0.0030206 4 255 0 0
0.26911 0.069782 -0.0018019 29 0 0 255
0.11863 0.076298 -0.003568 4 255 0 0
0.26609 0.082321 -0.0062809 29 0 0 255
0.18316 0.082058 0.0055688 4 255 0 0
0.27245 0.072261 -0.0019333 29 0 0 255
0.26786 0.082104 -0.0043294 29 0 0 255
0.09088 0.073981 0.0011332 4 255 0 0
0.24344 0.070445 -0.0047369 29 0 0 255
0.28394 0.072389 0.0025773 29 0 0 255
0.13242 0.086233 -0.0024737 4 255 0 0
0.21186 0.077464 -0.0023039 4 255 0 0
0.29072 0.092032 0.0051029 29 0 0 255
0.083592 0.087137 -0.0064676 4 255 0 0
0.29457 0.085761 0.0083606 29 0 0 255
0.15507 0.081411 0.0059344 4 255 0 0
0.2274 0.08331 -0.0058199 4 255 0 0
0.20706 0.081752 0.0035408 4 255 0 0
0.15427 0.086886 0.0031009 4 255 0 0
0.25003 0.067074 -0.0062962 29 0 0 255
0.15264 0.08007 -0.0026516 4 255 0 0
0.17477 0.085757 0.0040426 4 255 0 0
0.20381 0.085347 0.00035966 4 255 0 0
0.10112 0.075778 0.0017292 4 255 0 0
0.15828 0.086306 0.0038896 4 255 0 0
0.26791 0.091189 -0.0042393 29 0 0 255
0.18721 0.085894 0.00021711 4 255 0 0
0.23293 0.084715 -0.0057869 29 0 0 255
0.26366 0.078945 -0.0053775 29 0 0 255
0.3045 0.086209 0.017913 29 0 0 255
0.12955 0.075082 -0.0014659 4 255 0 0
0.20468 0.078306 -0.0020479 4 255 0 0
0.2601 0.074828 -0.0058525 29 0 0 255
0.14519 0.079216 -0.0027881 4 255 0 0
0.14356 0.078891 0.0044049 4 255 0 0
0.19343 0.084608 0.0038791 4 255 0 0
0.23459 0.075935 -0.0071054 29 0 0 255
0.13733 0.087641 0.0015851 4 255 0 0
0.085529 0.083384 0.0011371 4 255 0 0
0.22384 0.076672 -0.0041813 4 255 0 0
0.18377 0.086259 0.0021872 4 255 0 0
0.23764 0.079493 -0.0083894 29 0 0 255
0.1002 0.072858 0.0007332 4 255 0 0
0.2555 0.06887 -0.007465 29 0 0 255
0.24814 0.08724 -0.0064392 29 0 0 255
0.26103 0.067506 -0.0055334 29 0 0 255
0.15621 0.08668 0.0034331 4 255 0 0
0.2022 0.075825 0.0011121 4 255 0 0
0.27942 0.076405 0.00070775 29 0 0 255
0.086358 0.074074 0.0007554 4 255 0 0
0.2583 0.069633 -0.0044092 29 0 0 255
0.11196 0.078066 0.0028019 4 255 0 0
0.11312 0.079202 -0.005183 4 255 0 0
0.15882 0.086817 0.0030778 4 255 0 0
0.2983 0.073006 0.015094 29 0 0 255
0.26108 0.083743 -0.0081681 29 0 0 255
0.20568 0.081048 0.0037995 4 255 0 0
0.24325 0.069276 -0.007525 29 0 0 255
0.2641 0.091369 -0.0079578 29 0 0 255
0.30037 0.091048 0.013897 29 0 0 255
0.29695 0.084529 0.011654 29 0 0 255
0.29392 0.079159 0.0084265 29 0 0 255
0.12618 0.08734 -0.0019522 4 255 0 0
0.15687 0.080665 -0.0025953 4 255 0 0
0.20763 0.084366 -0.001871 4 255 0 0
0.2134 0.076184 0.00073712 4 255 0 0
0.23765 0.071509 -0.0048746 29 0 0 255
0.13803 0.078905 -0.0031439 4 255 0 0
0.19924 0.0807 0.0045397 4 255 0 0
0.10238 0.072766 -0.00077611 4 255 0 0
0.24599 0.069599 -0.0081898 29 0 0 255
0.1245 0.088075 -0.00065304 4 255 0 0
0.24069 0.073735 -0.0042396 29 0 0 255
0.25483 0.086834 -0.007225 29 0 0 255
0.20485 0.077337 -0.001464 4 255 0 0
0.22209 0.076412 -0.0033488 4 255 0 0
0.085082 0.086833 -0.0065356 4 255 0 0
0.29993 0.072746 0.016204 29 0 0 255
0.29649 0.084912 0.01233 29 0 0 255
0.28498 0.089752 0.0013484 29 0 0 255
0.12791 0.088032 4.689e-05 4 255 0 0
0.16363 0.085596 0.0044825 4 255 0 0
0.25381 0.071469 -0.0080318 29 0 0 255
0.26783 0.088638 -0.0062963 29 0 0 255
0.25927 0.088335 -0.0075166 29 0 0 255
0.1174 0.080832 0.0047196 4 255 0 0
0.22449 0.080943 -0.0059776 4 255 0 0
0.085427 0.082804 -0.0079154 4 255 0 0
0.24147 0.077559 -0.0045475 29 0 0 255
0.094216 0.083122 -0.0069784 4 255 0 0
0.25419 0.077958 -0.0055076 29 0 0 255
0.26294 0.070914 -0.0062686 29 0 0 255
0.26271 0.06805 -0.0054832 29 0 0 255
0.23697 0.072109 -0.0046228 29 0 0 255
0.27758 0.069848 -0.0003946 29 0 0 255
0.13514 0.086792 -0.0017479 4 255 0 0
0.15791 0.087074 0.0012993 4 255 0 0
0.23722 0.087303 -0.0080943 29 0 0 255
0.084552 0.074608 -0.0060513 4 255 0 0
0.26791 0.082083 -0.0052005 29 0 0 255
0.23562 0.074041 -0.0065109 29 0 0 255
0.26474 0.069039 -0.0030439 29 0 0 255
0.30381 0.074547 0.019256 29 0 0 255
0.086466 0.074527 -0.0057697 4 255 0 0
0.14946 0.078676 0.0043071 4 255 0 0
0.16936 0.075459 0.00085315 4 255 0 0
0.1313 0.075077 -0.0012666 4 255 0 0
0.10883 0.073141 -0.00080892 4 255 0 0
0.09877 0.084423 0.003241 4 255 0 0
0.25941 0.070792 -0.0071882 29 0 0 255
0.15923 0.08163 0.0059378 4 255 0 0
0.30391 0.085406 0.018421 29 0 0 255
0.26777 0.077428 -0.0027719 29 0 0 255
0.22559 0.078166 -0.00063788 4 255 0 0
0.16845 0.07975 -0.0021244 4 255 0 0
0.10586 0.073615 -0.0022878 4 255 0 0
0.29544 0.079915 0.011848 29 0 0 255
0.28778 0.083591 0.004022 29 0 0 255
0.084568 0.082868 -0.00030857 4 255 0 0
0.22299 0.084281 -0.0031457 4 255 0 0
0.26936 0.082604 -0.0053555 29 0 0 255
0.14386 0.078101 -0.0024823 4 255 0 0
0.14356 0.077889 0.0039472 4 255 0 0
0.25774 0.078163 -0.0053412 29 0 0 255
0.29482 0.079065 0.0091794 29 0 0 255
0.18605 0.078338 -0.0013746 4 255 0 0
0.081485 0.074746 -0.0043489 4 255 0 0
0.26731 0.083671 -0.0036217 29 0 0 255
0.21193 0.084696 0.00082646 4 255 0 0
0.11888 0.084183 0.0045008 4 255 0 0
0.22146 0.07796 -0.0045534 4 255 0 0
0.2451 0.082503 -0.0057981 29 0 0 255
0.26109 0.091552 -0.006056 29 0 0 255
0.27262 0.089248 -0.0027013 29 0 0 255
0.13273 0.087584 -0.00076883 4 255 0 0
0.28704 0.091446 0.0022632 29 0 0 255
0.12505 0.082928 -0.0043019 4 255 0 0
0.10706 0.085993 -0.0048326 4 255 0 0
0.19993 0.075916 0.00067962 4 255 0 0
0.15273 0.085962 -0.001379 4 255 0 0
0.11658 0.087049 -0.0032077 4 255 0 0
0.21036 0.079219 0.0028629 4 255 0 0
0.26925 0.068427 -0.0033322 29 0 0 255
0.28958 0.078903 0.0075666 29 0 0 255
0.20327 0.084516 -0.0015201 4 255 0 0
0.29497 0.072104 0.01043 29 0 0 255
0.26051 0.074992 -0.0067202 29 0 0 255
0.13694 0.075665 0.0037875 4 255 0 0
0.2629 0.069671 -0.00604 29 0 0 255
0.25877 0.091871 -0.009243 29 0 0 255
0.22001 0.076288 -0.00043328 4 255 0 0
0.1725 0.075104 0.0019029 4 255 0 0
0.24873 0.084909 -0.0062013 29 0 0 255
0.26384 0.085366 -0.0067713 29 0 0 255
0.26813 0.07555 -0.003126 29 0 0 255
0.15084 0.084435 0.0052929 4 255 0 0
0.25527 0.092835 -0.0073697 29 0 0 255
0.22261 0.076038 -0.0024315 4 255 0 0
0.26182 0.089563 -0.0085803 29 0 0 255
0.2436 0.075399 -0.0048218 29 0 0 255
