ply
format ascii 1.0
comment author Paulo Abelha (p.abelha at abdn ac uk)
element vertex 1534
property float x
property float y
property float z
property int segm
property uchar red
property uchar green
property uchar blue
end_header
4.3093 7.2863 1.124 15 0 255 0
4.4043 7.2952 1.1294 19 0 0 255
4.2997 7.2938 1.1263 15 0 255 0
4.4707 7.2984 1.1189 9 255 0 0
4.3498 7.2818 1.1179 15 0 255 0
4.3611 7.3001 1.1228 15 0 255 0
4.343 7.3065 1.116 15 0 255 0
4.3523 7.291 1.1188 15 0 255 0
4.2915 7.2824 1.1318 15 0 255 0
4.4202 7.288 1.1283 19 0 0 255
4.3384 7.2887 1.1167 15 0 255 0
4.4396 7.2894 1.127 19 0 0 255
4.5178 7.2938 1.1105 9 255 0 0
4.4613 7.2917 1.1326 9 255 0 0
4.3367 7.2871 1.1168 15 0 255 0
4.4437 7.2867 1.1317 19 0 0 255
4.4146 7.2969 1.1272 19 0 0 255
4.4194 7.2969 1.1295 19 0 0 255
4.5032 7.2805 1.12 9 255 0 0
4.4778 7.2895 1.1228 9 255 0 0
4.368 7.2819 1.1241 15 0 255 0
4.4453 7.2841 1.1288 19 0 0 255
4.305 7.2997 1.126 15 0 255 0
4.2924 7.2928 1.1295 15 0 255 0
4.4607 7.2848 1.1256 9 255 0 0
4.3283 7.2953 1.1184 15 0 255 0
4.5282 7.2814 1.1166 9 255 0 0
4.4442 7.2932 1.1328 19 0 0 255
4.4903 7.2944 1.122 9 255 0 0
4.3739 7.2966 1.1258 15 0 255 0
4.4215 7.285 1.1265 19 0 0 255
4.4318 7.2918 1.1276 19 0 0 255
4.5333 7.2964 1.1223 9 255 0 0
4.4262 7.2926 1.121 19 0 0 255
4.5166 7.2906 1.1104 9 255 0 0
4.5343 7.2885 1.1216 9 255 0 0
4.3351 7.3001 1.1154 15 0 255 0
4.5013 7.2834 1.115 9 255 0 0
4.447 7.2878 1.1248 19 0 0 255
4.4577 7.2862 1.1186 9 255 0 0
4.4718 7.2843 1.1248 9 255 0 0
4.4984 7.3001 1.1278 9 255 0 0
4.4477 7.2839 1.1228 19 0 0 255
4.4131 7.29 1.1261 19 0 0 255
4.4941 7.2976 1.115 9 255 0 0
4.5027 7.2872 1.1126 9 255 0 0
4.4862 7.2977 1.1301 9 255 0 0
4.5214 7.2837 1.1198 9 255 0 0
4.5131 7.286 1.1221 9 255 0 0
4.5265 7.3021 1.1177 9 255 0 0
4.5069 7.2963 1.1307 9 255 0 0
4.2934 7.287 1.1299 15 0 255 0
4.4352 7.2854 1.1224 19 0 0 255
4.3031 7.2832 1.1256 15 0 255 0
4.5207 7.2936 1.1313 9 255 0 0
4.428 7.2849 1.1294 19 0 0 255
4.365 7.289 1.1226 15 0 255 0
4.4401 7.2959 1.1208 19 0 0 255
4.4877 7.2866 1.1312 9 255 0 0
4.4774 7.2969 1.1166 9 255 0 0
4.315 7.2995 1.1217 15 0 255 0
4.437 7.2968 1.122 19 0 0 255
4.3336 7.3008 1.1173 15 0 255 0
4.4049 7.2918 1.1233 19 0 0 255
4.442 7.288 1.1196 19 0 0 255
4.4605 7.2974 1.1192 9 255 0 0
4.4036 7.2883 1.1244 19 0 0 255
4.509 7.2915 1.1224 9 255 0 0
4.5016 7.2832 1.1288 9 255 0 0
4.516 7.3015 1.1161 9 255 0 0
4.491 7.3007 1.1263 9 255 0 0
4.3862 7.2869 1.1279 15 0 255 0
4.5274 7.2875 1.13 9 255 0 0
4.2988 7.2869 1.1266 15 0 255 0
4.4198 7.2894 1.1217 19 0 0 255
4.4528 7.2861 1.1193 9 255 0 0
4.4443 7.2941 1.1193 19 0 0 255
4.3707 7.2898 1.1265 15 0 255 0
4.3491 7.2998 1.1178 15 0 255 0
4.4698 7.2945 1.125 9 255 0 0
4.4614 7.2946 1.1174 9 255 0 0
4.4654 7.2914 1.1326 9 255 0 0
4.5167 7.2843 1.1201 9 255 0 0
4.4231 7.2937 1.1329 19 0 0 255
4.4859 7.2929 1.1223 9 255 0 0
4.4559 7.2954 1.126 9 255 0 0
4.5005 7.281 1.1255 9 255 0 0
4.4876 7.2896 1.1138 9 255 0 0
4.5017 7.2969 1.1135 9 255 0 0
4.4483 7.2918 1.1265 19 0 0 255
4.4871 7.2985 1.1294 9 255 0 0
4.527 7.2908 1.1212 9 255 0 0
4.4382 7.2924 1.133 19 0 0 255
4.445 7.2903 1.125 19 0 0 255
4.43 7.2975 1.1245 19 0 0 255
4.5178 7.2813 1.1269 9 255 0 0
4.52 7.2952 1.1217 9 255 0 0
4.5066 7.284 1.1295 9 255 0 0
4.4921 7.2831 1.1234 9 255 0 0
4.4928 7.2853 1.1304 9 255 0 0
4.4642 7.2971 1.1238 9 255 0 0
4.4709 7.2878 1.1232 9 255 0 0
4.4705 7.2931 1.1233 9 255 0 0
4.4632 7.2987 1.1204 9 255 0 0
4.4932 7.2996 1.1282 9 255 0 0
4.4395 7.284 1.1276 19 0 0 255
4.3308 7.2932 1.1178 15 0 255 0
4.3423 7.2973 1.1159 15 0 255 0
4.5287 7.2957 1.1194 9 255 0 0
4.5034 7.2998 1.1228 9 255 0 0
4.3739 7.2896 1.1274 15 0 255 0
4.474 7.2977 1.1248 9 255 0 0
4.3282 7.2795 1.1183 15 0 255 0
4.4861 7.2826 1.1279 9 255 0 0
4.3115 7.2961 1.1225 15 0 255 0
4.4864 7.287 1.1239 9 255 0 0
4.5145 7.2903 1.1316 9 255 0 0
4.4391 7.2974 1.1225 19 0 0 255
4.5325 7.2977 1.1225 9 255 0 0
4.4763 7.2894 1.1152 9 255 0 0
4.4682 7.2964 1.1175 9 255 0 0
4.4746 7.296 1.1313 9 255 0 0
4.4778 7.2859 1.1244 9 255 0 0
4.3426 7.3046 1.1152 15 0 255 0
4.3546 7.2994 1.1196 15 0 255 0
4.3707 7.286 1.1265 15 0 255 0
4.3408 7.2896 1.1167 15 0 255 0
4.5237 7.303 1.1205 9 255 0 0
4.3427 7.2787 1.1167 15 0 255 0
4.5042 7.2843 1.1139 9 255 0 0
4.4534 7.2836 1.1282 19 0 0 255
4.4511 7.2938 1.1324 19 0 0 255
4.3627 7.283 1.1215 15 0 255 0
4.5102 7.2925 1.1112 9 255 0 0
4.4098 7.2884 1.1331 19 0 0 255
4.4454 7.2957 1.125 9 255 0 0
4.4921 7.2864 1.1218 9 255 0 0
4.4805 7.2942 1.1226 9 255 0 0
4.3575 7.287 1.119 15 0 255 0
4.4527 7.2983 1.1218 9 255 0 0
4.3021 7.2999 1.1253 15 0 255 0
4.4808 7.2943 1.1243 9 255 0 0
4.5085 7.3019 1.1246 9 255 0 0
4.5295 7.2892 1.1293 9 255 0 0
4.3699 7.2943 1.1262 15 0 255 0
4.3502 7.2849 1.1163 15 0 255 0
4.4569 7.2985 1.1242 9 255 0 0
4.4573 7.283 1.126 9 255 0 0
4.4351 7.2932 1.1329 19 0 0 255
4.5004 7.3014 1.1188 9 255 0 0
4.4064 7.2858 1.1278 19 0 0 255
4.5339 7.2921 1.1207 9 255 0 0
4.4786 7.2986 1.1291 9 255 0 0
4.4356 7.2844 1.1287 19 0 0 255
4.4414 7.2931 1.1328 19 0 0 255
4.4923 7.2996 1.1219 9 255 0 0
4.363 7.2982 1.1218 15 0 255 0
4.4246 7.2949 1.1281 19 0 0 255
4.3549 7.2814 1.1178 15 0 255 0
4.4756 7.2823 1.1268 9 255 0 0
4.3297 7.2954 1.1181 15 0 255 0
4.5143 7.282 1.1146 9 255 0 0
4.5142 7.29 1.1203 9 255 0 0
4.5012 7.2896 1.1123 9 255 0 0
4.5101 7.2903 1.1206 9 255 0 0
4.5007 7.2959 1.1132 9 255 0 0
4.5083 7.2899 1.1317 9 255 0 0
4.4278 7.2902 1.1332 19 0 0 255
4.4243 7.2961 1.1264 19 0 0 255
4.4105 7.2872 1.1323 19 0 0 255
4.3508 7.297 1.1166 15 0 255 0
4.4749 7.3 1.1268 9 255 0 0
4.4585 7.2905 1.1258 9 255 0 0
4.4506 7.2915 1.1263 19 0 0 255
4.3749 7.2956 1.126 15 0 255 0
4.4373 7.2854 1.1255 19 0 0 255
4.3483 7.3013 1.1177 15 0 255 0
4.4918 7.291 1.1132 9 255 0 0
4.4241 7.2966 1.1281 19 0 0 255
4.5265 7.2822 1.127 9 255 0 0
4.3948 7.2949 1.13 19 0 0 255
4.4868 7.2813 1.1229 9 255 0 0
4.5051 7.2912 1.1319 9 255 0 0
4.3453 7.3065 1.1171 15 0 255 0
4.4088 7.2915 1.1337 19 0 0 255
4.447 7.292 1.1329 19 0 0 255
4.3672 7.2957 1.1235 15 0 255 0
4.3163 7.278 1.1201 15 0 255 0
4.3406 7.2822 1.1163 15 0 255 0
4.5216 7.2975 1.13 9 255 0 0
4.513 7.2805 1.1252 9 255 0 0
4.5169 7.2862 1.1218 9 255 0 0
4.5283 7.294 1.1194 9 255 0 0
4.4615 7.283 1.1274 9 255 0 0
4.4088 7.293 1.1334 19 0 0 255
4.2929 7.2949 1.1312 15 0 255 0
4.4783 7.2835 1.1227 9 255 0 0
4.3165 7.2928 1.1214 15 0 255 0
4.5213 7.3015 1.115 9 255 0 0
4.531 7.2917 1.1209 9 255 0 0
4.4847 7.2971 1.1304 9 255 0 0
4.3658 7.2837 1.1247 15 0 255 0
4.4836 7.2842 1.1166 9 255 0 0
4.5208 7.2907 1.1099 9 255 0 0
4.306 7.288 1.1255 15 0 255 0
4.3011 7.3016 1.1258 15 0 255 0
4.4385 7.284 1.1259 19 0 0 255
4.4524 7.2916 1.1328 9 255 0 0
4.4001 7.2919 1.1297 19 0 0 255
4.4356 7.2913 1.1256 19 0 0 255
4.5123 7.2884 1.1314 9 255 0 0
4.4317 7.2883 1.1207 19 0 0 255
4.3581 7.3058 1.1201 15 0 255 0
4.5075 7.2836 1.1207 9 255 0 0
4.4837 7.2846 1.124 9 255 0 0
4.4398 7.2969 1.1271 19 0 0 255
4.3516 7.2823 1.1167 15 0 255 0
4.5201 7.2826 1.1284 9 255 0 0
4.423 7.2965 1.1238 19 0 0 255
4.2958 7.2985 1.1298 15 0 255 0
4.4398 7.2948 1.127 19 0 0 255
4.4472 7.2841 1.1287 19 0 0 255
4.3143 7.2962 1.1212 15 0 255 0
4.2997 7.2811 1.128 15 0 255 0
4.517 7.2975 1.1219 9 255 0 0
4.3626 7.2963 1.1216 15 0 255 0
4.4356 7.2869 1.1273 19 0 0 255
4.4885 7.295 1.1315 9 255 0 0
4.49 7.2911 1.122 9 255 0 0
4.4489 7.2904 1.1264 19 0 0 255
4.4505 7.2943 1.1263 19 0 0 255
4.4941 7.2915 1.1129 9 255 0 0
4.3542 7.2858 1.1194 15 0 255 0
4.4401 7.2863 1.1253 19 0 0 255
4.5256 7.2855 1.1212 9 255 0 0
4.4515 7.2926 1.118 19 0 0 255
4.2976 7.2944 1.129 15 0 255 0
4.463 7.2881 1.117 9 255 0 0
4.4131 7.295 1.125 19 0 0 255
4.3485 7.2768 1.1159 15 0 255 0
4.32 7.2858 1.1192 15 0 255 0
4.5275 7.2819 1.1261 9 255 0 0
4.4378 7.287 1.1254 19 0 0 255
4.3461 7.2909 1.1172 15 0 255 0
4.3313 7.2854 1.1161 15 0 255 0
4.5087 7.288 1.1117 9 255 0 0
4.3582 7.2913 1.1212 15 0 255 0
4.5053 7.2806 1.1188 9 255 0 0
4.4479 7.2835 1.1254 19 0 0 255
4.2896 7.2932 1.1312 15 0 255 0
4.5238 7.2932 1.1214 9 255 0 0
4.4888 7.2812 1.1224 9 255 0 0
4.3248 7.305 1.1194 15 0 255 0
4.3484 7.2823 1.1176 15 0 255 0
4.3171 7.2944 1.1216 15 0 255 0
4.4905 7.2866 1.1312 9 255 0 0
4.4995 7.2808 1.1245 9 255 0 0
4.4312 7.2914 1.1202 19 0 0 255
4.5023 7.2804 1.1223 9 255 0 0
4.3558 7.2838 1.12 15 0 255 0
4.5111 7.2801 1.1234 9 255 0 0
4.3548 7.2907 1.1178 15 0 255 0
4.4022 7.2949 1.126 19 0 0 255
4.4514 7.2871 1.1245 19 0 0 255
4.4578 7.2832 1.1275 9 255 0 0
4.4722 7.2875 1.1318 9 255 0 0
4.4588 7.2943 1.1176 19 0 0 255
4.4823 7.2857 1.1225 9 255 0 0
4.4879 7.2994 1.1238 9 255 0 0
4.3207 7.2957 1.1188 15 0 255 0
4.4593 7.2924 1.1257 9 255 0 0
4.5258 7.2911 1.1196 9 255 0 0
4.3162 7.2812 1.1201 15 0 255 0
4.4889 7.2817 1.1194 9 255 0 0
4.5039 7.2875 1.121 9 255 0 0
4.362 7.298 1.1232 15 0 255 0
4.4992 7.3015 1.1246 9 255 0 0
4.3497 7.2799 1.1161 15 0 255 0
4.5316 7.2922 1.1279 9 255 0 0
4.5154 7.2932 1.1203 9 255 0 0
4.3466 7.2893 1.1156 15 0 255 0
4.3751 7.2952 1.1278 15 0 255 0
4.526 7.2801 1.1233 9 255 0 0
4.5126 7.2859 1.1306 9 255 0 0
4.3089 7.2995 1.1245 15 0 255 0
4.3691 7.2948 1.1242 15 0 255 0
4.4887 7.2992 1.1287 9 255 0 0
4.3736 7.2858 1.1273 15 0 255 0
4.4939 7.2929 1.1131 9 255 0 0
4.4411 7.2955 1.1318 9 255 0 0
4.4248 7.2922 1.128 19 0 0 255
4.4114 7.2941 1.1232 19 0 0 255
4.529 7.2844 1.1193 9 255 0 0
4.4505 7.2978 1.1297 9 255 0 0
4.5241 7.2912 1.1197 9 255 0 0
4.4753 7.2992 1.1283 9 255 0 0
4.5126 7.2972 1.1302 9 255 0 0
4.485 7.2942 1.1223 9 255 0 0
4.495 7.282 1.1273 9 255 0 0
4.3552 7.2799 1.1179 15 0 255 0
4.4103 7.2858 1.1262 19 0 0 255
4.3356 7.2779 1.1151 15 0 255 0
4.3363 7.2764 1.1168 15 0 255 0
4.4465 7.2951 1.1194 19 0 0 255
4.3518 7.3068 1.1174 15 0 255 0
4.3684 7.2899 1.1257 15 0 255 0
4.3136 7.3009 1.1228 15 0 255 0
4.4049 7.2961 1.1305 19 0 0 255
4.4524 7.2945 1.1322 9 255 0 0
4.3211 7.2802 1.1203 15 0 255 0
4.433 7.2859 1.1221 19 0 0 255
4.5072 7.291 1.1208 9 255 0 0
4.4619 7.2994 1.1264 9 255 0 0
4.4135 7.2909 1.1311 19 0 0 255
4.3461 7.3004 1.1156 15 0 255 0
4.4696 7.299 1.1198 9 255 0 0
4.3077 7.2892 1.1248 15 0 255 0
4.5157 7.2955 1.1219 9 255 0 0
4.3841 7.294 1.1278 15 0 255 0
4.4171 7.2965 1.1304 19 0 0 255
4.517 7.2907 1.1202 9 255 0 0
4.4991 7.3006 1.1174 9 255 0 0
4.4976 7.2817 1.1214 9 255 0 0
4.4996 7.2947 1.1314 9 255 0 0
4.4176 7.2955 1.1234 19 0 0 255
4.4756 7.2934 1.1322 9 255 0 0
4.2961 7.3012 1.1279 15 0 255 0
4.5176 7.2855 1.1201 9 255 0 0
4.5091 7.3023 1.1211 9 255 0 0
4.4234 7.2948 1.1265 19 0 0 255
4.437 7.298 1.1244 19 0 0 255
4.4754 7.2978 1.1176 9 255 0 0
4.314 7.3035 1.1227 15 0 255 0
4.5329 7.2878 1.1191 9 255 0 0
4.3299 7.2855 1.1169 15 0 255 0
4.4927 7.2839 1.1156 9 255 0 0
4.2971 7.2953 1.1281 15 0 255 0
4.319 7.2964 1.1208 15 0 255 0
4.5117 7.2935 1.1111 9 255 0 0
4.4729 7.2885 1.1231 9 255 0 0
4.4874 7.2972 1.1239 9 255 0 0
4.5139 7.2874 1.122 9 255 0 0
4.5321 7.2961 1.1153 9 255 0 0
4.469 7.2823 1.1233 9 255 0 0
4.4705 7.2825 1.1216 9 255 0 0
4.3489 7.3034 1.1161 15 0 255 0
4.4648 7.2963 1.1311 9 255 0 0
4.4654 7.2953 1.1172 9 255 0 0
4.4837 7.3006 1.121 9 255 0 0
4.4599 7.2874 1.1256 9 255 0 0
4.5198 7.3027 1.1186 9 255 0 0
4.3524 7.2756 1.1182 15 0 255 0
4.5113 7.284 1.1222 9 255 0 0
4.4605 7.283 1.1256 9 255 0 0
4.4807 7.2947 1.1151 9 255 0 0
4.333 7.3004 1.1157 15 0 255 0
4.5215 7.2866 1.1307 9 255 0 0
4.4081 7.2868 1.1318 19 0 0 255
4.4736 7.291 1.1231 9 255 0 0
4.4967 7.2881 1.113 9 255 0 0
4.3421 7.2959 1.1151 15 0 255 0
4.4995 7.3017 1.1219 9 255 0 0
4.4998 7.2984 1.1214 9 255 0 0
4.3265 7.2927 1.1186 15 0 255 0
4.3827 7.2887 1.1292 15 0 255 0
4.3343 7.2945 1.1172 15 0 255 0
4.5224 7.294 1.1215 9 255 0 0
4.3162 7.278 1.1217 15 0 255 0
4.5065 7.2987 1.1293 9 255 0 0
4.4768 7.2908 1.1229 9 255 0 0
4.4746 7.2962 1.123 9 255 0 0
4.5121 7.2935 1.1315 9 255 0 0
4.4967 7.2853 1.1143 9 255 0 0
4.4756 7.2918 1.1151 9 255 0 0
4.4152 7.2945 1.1326 19 0 0 255
4.3663 7.2941 1.125 15 0 255 0
4.4502 7.2934 1.1183 19 0 0 255
4.4536 7.2902 1.1327 9 255 0 0
4.3099 7.2889 1.124 15 0 255 0
4.5254 7.2913 1.1312 9 255 0 0
4.3157 7.3009 1.1221 15 0 255 0
4.4895 7.2823 1.1182 9 255 0 0
4.3749 7.2891 1.126 15 0 255 0
4.3205 7.2778 1.1204 15 0 255 0
4.5203 7.299 1.129 9 255 0 0
4.5204 7.2795 1.1199 9 255 0 0
4.3004 7.2927 1.1278 15 0 255 0
4.5127 7.2873 1.1114 9 255 0 0
4.298 7.2817 1.1269 15 0 255 0
4.3336 7.2854 1.1155 15 0 255 0
4.301 7.2881 1.1257 15 0 255 0
4.354 7.3038 1.1194 15 0 255 0
4.3682 7.2964 1.1257 15 0 255 0
4.5124 7.2809 1.1166 9 255 0 0
4.3063 7.2944 1.1236 15 0 255 0
4.5267 7.2801 1.1219 9 255 0 0
4.4892 7.2947 1.1141 9 255 0 0
4.2975 7.2827 1.129 15 0 255 0
4.2907 7.2946 1.1315 15 0 255 0
4.5147 7.3012 1.1157 9 255 0 0
4.3083 7.3014 1.1247 15 0 255 0
4.5238 7.2813 1.1196 9 255 0 0
4.4973 7.3005 1.1232 9 255 0 0
4.4541 7.2991 1.1253 9 255 0 0
4.3488 7.2983 1.1178 15 0 255 0
4.312 7.2798 1.1214 15 0 255 0
4.5219 7.2855 1.111 9 255 0 0
4.4673 7.2862 1.1174 9 255 0 0
4.3003 7.2955 1.1278 15 0 255 0
4.4734 7.2868 1.1231 9 255 0 0
4.3279 7.2778 1.1184 15 0 255 0
4.3699 7.2972 1.1263 15 0 255 0
4.5099 7.2905 1.1317 9 255 0 0
4.3521 7.2878 1.1186 15 0 255 0
4.462 7.2865 1.1315 9 255 0 0
4.4446 7.2982 1.1251 9 255 0 0
4.5026 7.2953 1.1212 9 255 0 0
4.4856 7.2825 1.1184 9 255 0 0
4.3046 7.2831 1.1257 15 0 255 0
4.4722 7.2934 1.1157 9 255 0 0
4.4459 7.2867 1.1317 19 0 0 255
4.3999 7.2907 1.128 19 0 0 255
4.4476 7.293 1.1185 19 0 0 255
4.4093 7.2903 1.1228 19 0 0 255
4.4874 7.2927 1.1222 9 255 0 0
4.534 7.292 1.1168 9 255 0 0
4.5153 7.2838 1.1128 9 255 0 0
4.3227 7.2789 1.1198 15 0 255 0
4.4808 7.2835 1.129 9 255 0 0
4.5198 7.3011 1.1269 9 255 0 0
4.3391 7.2817 1.115 15 0 255 0
4.4452 7.2875 1.125 19 0 0 255
4.4783 7.2972 1.1245 9 255 0 0
4.3723 7.2888 1.1252 15 0 255 0
4.404 7.2961 1.1267 19 0 0 255
4.3329 7.2968 1.1174 15 0 255 0
4.5308 7.2829 1.118 9 255 0 0
4.3263 7.2808 1.1188 15 0 255 0
4.5046 7.2822 1.1278 9 255 0 0
4.3318 7.2894 1.1159 15 0 255 0
4.4419 7.2863 1.1205 19 0 0 255
4.3221 7.3046 1.1184 15 0 255 0
4.5038 7.2893 1.1317 9 255 0 0
4.4759 7.2881 1.1319 9 255 0 0
4.3189 7.2943 1.121 15 0 255 0
4.5127 7.2832 1.1221 9 255 0 0
4.3514 7.3001 1.1168 15 0 255 0
4.4716 7.2861 1.1169 9 255 0 0
4.533 7.2965 1.1177 9 255 0 0
4.417 7.2951 1.1322 19 0 0 255
4.4912 7.2842 1.1156 9 255 0 0
4.5053 7.2958 1.1309 9 255 0 0
4.5312 7.2851 1.1261 9 255 0 0
4.3079 7.2792 1.1229 15 0 255 0
4.4148 7.2964 1.1251 19 0 0 255
4.5113 7.2909 1.1317 9 255 0 0
4.3645 7.2994 1.1243 15 0 255 0
4.5083 7.3014 1.1173 9 255 0 0
4.5287 7.2928 1.1299 9 255 0 0
4.5121 7.3003 1.1277 9 255 0 0
4.4495 7.2989 1.1249 9 255 0 0
4.3817 7.2919 1.1274 15 0 255 0
4.4614 7.29 1.1326 9 255 0 0
4.514 7.2955 1.1114 9 255 0 0
4.4129 7.2884 1.1234 19 0 0 255
4.3467 7.2792 1.1155 15 0 255 0
4.5006 7.2948 1.123 9 255 0 0
4.4792 7.2968 1.1163 9 255 0 0
4.4705 7.2891 1.1323 9 255 0 0
4.5241 7.2893 1.1099 9 255 0 0
4.465 7.2949 1.1254 9 255 0 0
4.4293 7.2884 1.126 19 0 0 255
4.4817 7.2827 1.1278 9 255 0 0
4.5075 7.2851 1.1208 9 255 0 0
4.3315 7.2765 1.116 15 0 255 0
4.4979 7.3 1.1167 9 255 0 0
4.4806 7.2869 1.1154 9 255 0 0
4.4367 7.2894 1.1272 19 0 0 255
4.4428 7.294 1.1325 19 0 0 255
4.5321 7.284 1.1195 9 255 0 0
4.463 7.2899 1.1167 9 255 0 0
4.3364 7.3009 1.1169 15 0 255 0
4.3701 7.2936 1.1246 15 0 255 0
4.4828 7.291 1.1142 9 255 0 0
4.5041 7.3018 1.1239 9 255 0 0
4.474 7.294 1.132 9 255 0 0
4.4943 7.2837 1.1156 9 255 0 0
4.3668 7.3007 1.1234 15 0 255 0
4.4812 7.2937 1.132 9 255 0 0
4.4986 7.2939 1.1127 9 255 0 0
4.2927 7.2927 1.1313 15 0 255 0
4.5084 7.2969 1.1304 9 255 0 0
4.4648 7.2911 1.1163 9 255 0 0
4.4999 7.2997 1.1282 9 255 0 0
4.5227 7.2999 1.1283 9 255 0 0
4.3863 7.2953 1.1291 15 0 255 0
4.5137 7.2846 1.1299 9 255 0 0
4.4729 7.2916 1.1154 9 255 0 0
4.5081 7.2998 1.115 9 255 0 0
4.5162 7.2946 1.1312 9 255 0 0
4.5181 7.2802 1.1249 9 255 0 0
4.3138 7.2928 1.1224 15 0 255 0
4.4911 7.2919 1.1236 9 255 0 0
4.3685 7.2933 1.124 15 0 255 0
4.3498 7.3045 1.1163 15 0 255 0
4.3044 7.2946 1.1262 15 0 255 0
4.3328 7.3034 1.1175 15 0 255 0
4.4158 7.289 1.1286 19 0 0 255
4.4646 7.2855 1.1308 9 255 0 0
4.421 7.2932 1.1283 19 0 0 255
4.4855 7.2984 1.1167 9 255 0 0
4.2952 7.2814 1.13 15 0 255 0
4.4292 7.2963 1.1227 19 0 0 255
4.4016 7.2917 1.1296 19 0 0 255
4.498 7.299 1.1155 9 255 0 0
4.4887 7.2892 1.122 9 255 0 0
4.3385 7.2927 1.1168 15 0 255 0
4.3618 7.299 1.1212 15 0 255 0
4.3145 7.2887 1.1207 15 0 255 0
4.3037 7.3024 1.1247 15 0 255 0
4.532 7.2865 1.1261 9 255 0 0
4.4496 7.2886 1.1325 19 0 0 255
4.3585 7.2945 1.1214 15 0 255 0
4.5296 7.2826 1.125 9 255 0 0
4.4303 7.2883 1.1327 19 0 0 255
4.3421 7.2941 1.1151 15 0 255 0
4.5236 7.2955 1.1105 9 255 0 0
4.454 7.2896 1.126 19 0 0 255
4.4592 7.2909 1.1327 9 255 0 0
4.3672 7.2982 1.1235 15 0 255 0
4.3522 7.302 1.1188 15 0 255 0
4.5207 7.2912 1.1216 9 255 0 0
4.5145 7.2805 1.117 9 255 0 0
4.5227 7.2988 1.1122 9 255 0 0
4.4976 7.2893 1.1127 9 255 0 0
4.4084 7.292 1.1291 19 0 0 255
4.4567 7.289 1.1325 9 255 0 0
4.4207 7.2919 1.1334 19 0 0 255
4.4071 7.2896 1.1275 19 0 0 255
4.5046 7.3013 1.1179 9 255 0 0
4.4545 7.2867 1.1316 9 255 0 0
4.3122 7.2929 1.1232 15 0 255 0
4.3547 7.2894 1.1196 15 0 255 0
4.5015 7.2817 1.1171 9 255 0 0
4.4301 7.2969 1.126 19 0 0 255
4.4607 7.284 1.1202 9 255 0 0
4.3269 7.2887 1.1187 15 0 255 0
4.488 7.2863 1.1237 9 255 0 0
4.4112 7.2888 1.1272 19 0 0 255
4.5001 7.2975 1.1301 9 255 0 0
4.3572 7.2948 1.1189 15 0 255 0
4.3421 7.3018 1.1152 15 0 255 0
4.5237 7.2845 1.1197 9 255 0 0
4.4632 7.2857 1.1309 9 255 0 0
4.4319 7.2941 1.1259 19 0 0 255
4.5193 7.2955 1.1108 9 255 0 0
4.4705 7.2884 1.1161 9 255 0 0
4.5012 7.2845 1.1299 9 255 0 0
4.4177 7.297 1.1262 19 0 0 255
4.4609 7.2903 1.1239 9 255 0 0
4.5335 7.2953 1.1235 9 255 0 0
4.4407 7.29 1.1192 19 0 0 255
4.4235 7.2892 1.1264 19 0 0 255
4.4105 7.2905 1.1336 19 0 0 255
4.444 7.2961 1.1204 19 0 0 255
4.4448 7.2899 1.1329 19 0 0 255
4.4791 7.2898 1.1244 9 255 0 0
4.3218 7.2858 1.1201 15 0 255 0
4.3299 7.2776 1.1179 15 0 255 0
4.4671 7.2882 1.1321 9 255 0 0
4.4046 7.2886 1.1332 19 0 0 255
4.4719 7.2849 1.1303 9 255 0 0
4.506 7.2994 1.1149 9 255 0 0
4.4262 7.2953 1.132 19 0 0 255
4.482 7.2887 1.1225 9 255 0 0
4.5191 7.2798 1.124 9 255 0 0
4.5097 7.3017 1.1176 9 255 0 0
4.3531 7.2924 1.1172 15 0 255 0
4.4325 7.286 1.1312 19 0 0 255
4.3569 7.2905 1.1206 15 0 255 0
4.3663 7.2887 1.1231 15 0 255 0
4.3178 7.3015 1.1214 15 0 255 0
4.5032 7.2917 1.1319 9 255 0 0
4.4075 7.2865 1.1292 19 0 0 255
4.5065 7.2878 1.1225 9 255 0 0
4.4493 7.292 1.1182 19 0 0 255
4.3139 7.303 1.121 15 0 255 0
4.4264 7.2944 1.1263 19 0 0 255
4.4522 7.2901 1.1328 9 255 0 0
4.4059 7.2924 1.1336 19 0 0 255
4.4374 7.2889 1.1328 19 0 0 255
4.3443 7.3055 1.117 15 0 255 0
4.492 7.2925 1.1219 9 255 0 0
4.3204 7.2895 1.1197 15 0 255 0
4.5328 7.2851 1.1203 9 255 0 0
4.3326 7.2788 1.1157 15 0 255 0
4.3843 7.2875 1.1277 15 0 255 0
4.422 7.2896 1.1265 19 0 0 255
4.484 7.299 1.1176 9 255 0 0
4.5256 7.2951 1.1196 9 255 0 0
4.3627 7.2963 1.1235 15 0 255 0
4.5145 7.2968 1.1119 9 255 0 0
4.4755 7.2853 1.1246 9 255 0 0
4.4851 7.2915 1.1322 9 255 0 0
4.4125 7.2906 1.1224 19 0 0 255
4.4419 7.2866 1.1252 19 0 0 255
4.4978 7.287 1.1133 9 255 0 0
4.4669 7.2919 1.1252 9 255 0 0
4.5242 7.299 1.1124 9 255 0 0
4.473 7.3002 1.123 9 255 0 0
4.5299 7.2978 1.114 9 255 0 0
4.4134 7.2904 1.1296 19 0 0 255
4.3067 7.2823 1.1252 15 0 255 0
4.4872 7.2826 1.118 9 255 0 0
4.4454 7.2864 1.1266 19 0 0 255
4.5009 7.2816 1.1228 9 255 0 0
4.3996 7.2885 1.128 19 0 0 255
4.4908 7.2995 1.1284 9 255 0 0
4.3494 7.2785 1.116 15 0 255 0
4.5216 7.2822 1.1133 9 255 0 0
4.467 7.2918 1.1325 9 255 0 0
4.5113 7.2833 1.1137 9 255 0 0
4.4371 7.2969 1.1256 19 0 0 255
4.4047 7.286 1.1299 19 0 0 255
4.519 7.2868 1.12 9 255 0 0
4.339 7.2945 1.1167 15 0 255 0
4.4852 7.293 1.124 9 255 0 0
4.5086 7.2868 1.1207 9 255 0 0
4.5038 7.2894 1.121 9 255 0 0
4.441 7.288 1.1252 19 0 0 255
4.2895 7.2888 1.1309 15 0 255 0
4.4893 7.3 1.118 9 255 0 0
4.4077 7.2881 1.1329 19 0 0 255
4.3347 7.2808 1.117 15 0 255 0
4.4513 7.2837 1.1282 19 0 0 255
4.4739 7.285 1.1247 9 255 0 0
4.3598 7.2924 1.1202 15 0 255 0
4.3241 7.2783 1.1194 15 0 255 0
4.3476 7.2822 1.1157 15 0 255 0
4.3294 7.2815 1.118 15 0 255 0
4.3353 7.3061 1.116 15 0 255 0
4.3126 7.2861 1.1226 15 0 255 0
4.3632 7.2903 1.1237 15 0 255 0
4.4358 7.2978 1.1257 19 0 0 255
4.5279 7.2879 1.1211 9 255 0 0
4.4159 7.2882 1.1269 19 0 0 255
4.4501 7.2838 1.1263 19 0 0 255
4.4857 7.2891 1.1239 9 255 0 0
4.52 7.2976 1.12 9 255 0 0
4.4608 7.296 1.1313 9 255 0 0
4.3248 7.2927 1.1184 15 0 255 0
4.4009 7.2866 1.1296 19 0 0 255
4.5135 7.2814 1.1203 9 255 0 0
4.3197 7.2826 1.1202 15 0 255 0
4.5237 7.2801 1.1213 9 255 0 0
4.3271 7.2946 1.117 15 0 255 0
4.5153 7.29 1.1106 9 255 0 0
4.4774 7.2939 1.1245 9 255 0 0
4.4938 7.3005 1.1269 9 255 0 0
4.3496 7.2868 1.1178 15 0 255 0
4.5238 7.3026 1.1236 9 255 0 0
4.4343 7.2862 1.1216 19 0 0 255
4.4827 7.2993 1.1284 9 255 0 0
4.4147 7.288 1.1287 19 0 0 255
4.5019 7.3 1.1212 9 255 0 0
4.5168 7.2977 1.1121 9 255 0 0
4.3736 7.2943 1.1274 15 0 255 0
4.5128 7.28 1.1193 9 255 0 0
4.4062 7.2959 1.1311 19 0 0 255
4.3393 7.286 1.1167 15 0 255 0
4.4425 7.296 1.1205 19 0 0 255
4.4146 7.2892 1.127 19 0 0 255
4.427 7.2935 1.1279 19 0 0 255
4.5034 7.2811 1.1259 9 255 0 0
4.4706 7.2851 1.1249 9 255 0 0
4.3201 7.3002 1.119 15 0 255 0
4.3365 7.2764 1.1151 15 0 255 0
4.4984 7.2834 1.1214 9 255 0 0
4.4849 7.2816 1.1253 9 255 0 0
4.5183 7.2887 1.1104 9 255 0 0
4.4607 7.2849 1.1302 9 255 0 0
4.5234 7.2895 1.1214 9 255 0 0
4.3589 7.283 1.1196 15 0 255 0
4.2954 7.2985 1.1282 15 0 255 0
4.5098 7.289 1.1206 9 255 0 0
4.4739 7.2994 1.1199 9 255 0 0
4.4021 7.2864 1.131 19 0 0 255
4.492 7.2869 1.114 9 255 0 0
4.4725 7.2971 1.1249 9 255 0 0
4.5018 7.2846 1.114 9 255 0 0
4.4876 7.3 1.1274 9 255 0 0
4.3407 7.2855 1.115 15 0 255 0
4.5066 7.2863 1.1308 9 255 0 0
4.522 7.284 1.1119 9 255 0 0
4.4983 7.2958 1.1214 9 255 0 0
4.5243 7.2858 1.1302 9 255 0 0
4.3646 7.2952 1.1243 15 0 255 0
4.4967 7.2953 1.1312 9 255 0 0
4.4989 7.2899 1.1319 9 255 0 0
4.4558 7.2912 1.1328 9 255 0 0
4.4777 7.2829 1.128 9 255 0 0
4.3972 7.2891 1.1298 19 0 0 255
4.4803 7.2824 1.1242 9 255 0 0
4.5082 7.2966 1.1208 9 255 0 0
4.4841 7.2824 1.1189 9 255 0 0
4.4688 7.2858 1.125 9 255 0 0
4.503 7.3003 1.1276 9 255 0 0
4.4516 7.2966 1.1197 9 255 0 0
4.4684 7.294 1.1251 9 255 0 0
4.43 7.2872 1.1215 19 0 0 255
4.4679 7.2965 1.1235 9 255 0 0
4.3674 7.2875 1.1236 15 0 255 0
4.5096 7.2979 1.1132 9 255 0 0
4.5134 7.2958 1.1221 9 255 0 0
4.3158 7.2997 1.1203 15 0 255 0
4.4594 7.2993 1.1241 9 255 0 0
4.4546 7.2844 1.1207 9 255 0 0
4.4905 7.2813 1.1204 9 255 0 0
4.4495 7.2836 1.1234 19 0 0 255
4.3513 7.295 1.1185 15 0 255 0
4.4731 7.2838 1.1187 9 255 0 0
4.4158 7.2867 1.1286 19 0 0 255
4.3599 7.2958 1.1221 15 0 255 0
4.3151 7.3013 1.1206 15 0 255 0
4.3074 7.2864 1.1235 15 0 255 0
4.4904 7.299 1.1166 9 255 0 0
4.3336 7.2949 1.1156 15 0 255 0
4.3316 7.2896 1.1174 15 0 255 0
4.4891 7.2913 1.1237 9 255 0 0
4.5288 7.2956 1.1211 9 255 0 0
4.5049 7.2957 1.1227 9 255 0 0
4.4274 7.2976 1.1273 19 0 0 255
4.5221 7.2927 1.1314 9 255 0 0
4.4924 7.2881 1.1218 9 255 0 0
4.5024 7.2852 1.1303 9 255 0 0
4.5208 7.3022 1.1216 9 255 0 0
4.4458 7.2984 1.1233 9 255 0 0
4.4647 7.2988 1.1203 9 255 0 0
4.4966 7.2827 1.1165 9 255 0 0
4.2942 7.2836 1.1287 15 0 255 0
4.3276 7.294 1.1186 15 0 255 0
4.5098 7.2999 1.1224 9 255 0 0
4.5186 7.28 1.1171 9 255 0 0
4.5254 7.28 1.1174 9 255 0 0
4.511 7.2987 1.1135 9 255 0 0
4.3057 7.3024 1.1239 15 0 255 0
4.5176 7.2994 1.1131 9 255 0 0
4.4889 7.2842 1.1159 9 255 0 0
4.4461 7.2974 1.125 9 255 0 0
4.3231 7.2868 1.1198 15 0 255 0
4.4436 7.2957 1.1268 19 0 0 255
4.4971 7.3016 1.1213 9 255 0 0
4.4461 7.2857 1.1249 19 0 0 255
4.46 7.2917 1.124 9 255 0 0
4.5197 7.2809 1.1152 9 255 0 0
4.3723 7.2968 1.1253 15 0 255 0
4.5064 7.2888 1.1316 9 255 0 0
4.5126 7.3023 1.119 9 255 0 0
4.503 7.2961 1.1228 9 255 0 0
4.3121 7.2928 1.1215 15 0 255 0
4.3406 7.3011 1.1167 15 0 255 0
4.3311 7.2947 1.116 15 0 255 0
4.5111 7.2863 1.1205 9 255 0 0
4.4052 7.2874 1.1276 19 0 0 255
4.4535 7.2895 1.1178 9 255 0 0
4.4922 7.2812 1.1251 9 255 0 0
4.5156 7.3014 1.1262 9 255 0 0
4.5072 7.2955 1.1209 9 255 0 0
4.4884 7.2864 1.1221 9 255 0 0
4.5226 7.2883 1.1214 9 255 0 0
4.3018 7.2799 1.1263 15 0 255 0
4.4212 7.2935 1.1266 19 0 0 255
4.4663 7.2985 1.1197 9 255 0 0
4.5303 7.2857 1.1136 9 255 0 0
4.476 7.2876 1.1246 9 255 0 0
4.4767 7.2977 1.1246 9 255 0 0
4.4787 7.2911 1.1147 9 255 0 0
4.5267 7.2813 1.1155 9 255 0 0
4.513 7.2916 1.1204 9 255 0 0
4.4649 7.2897 1.1325 9 255 0 0
4.5011 7.2957 1.1213 9 255 0 0
4.3328 7.2961 1.1157 15 0 255 0
4.4571 7.2953 1.1182 9 255 0 0
4.4593 7.286 1.1257 9 255 0 0
4.4402 7.2976 1.1295 19 0 0 255
4.4725 7.2901 1.1231 9 255 0 0
4.5253 7.2944 1.1213 9 255 0 0
4.5116 7.2829 1.1286 9 255 0 0
4.5264 7.295 1.1108 9 255 0 0
4.3413 7.2851 1.1166 15 0 255 0
4.4742 7.298 1.1231 9 255 0 0
4.3538 7.2892 1.1175 15 0 255 0
4.4194 7.2874 1.1227 19 0 0 255
4.4418 7.2951 1.1269 19 0 0 255
4.5029 7.2853 1.1134 9 255 0 0
4.3545 7.2844 1.1195 15 0 255 0
4.4941 7.2989 1.1161 9 255 0 0
4.5189 7.2994 1.1287 9 255 0 0
4.4696 7.2834 1.1286 9 255 0 0
4.3431 7.2942 1.1169 15 0 255 0
4.3551 7.2924 1.118 15 0 255 0
4.4523 7.2837 1.1261 19 0 0 255
4.2984 7.2893 1.1268 15 0 255 0
4.5242 7.2835 1.1122 9 255 0 0
4.3465 7.2931 1.1173 15 0 255 0
4.4174 7.2856 1.1285 19 0 0 255
4.5052 7.2811 1.126 9 255 0 0
4.3577 7.2972 1.121 15 0 255 0
4.5017 7.2897 1.1228 9 255 0 0
4.3036 7.3 1.1265 15 0 255 0
4.3702 7.2922 1.1246 15 0 255 0
4.48 7.2872 1.1243 9 255 0 0
4.4686 7.2858 1.131 9 255 0 0
4.4586 7.292 1.1171 19 0 0 255
4.4831 7.2883 1.1241 9 255 0 0
4.459 7.293 1.1241 9 255 0 0
4.4898 7.3009 1.1254 9 255 0 0
4.3218 7.3031 1.1185 15 0 255 0
4.5139 7.298 1.1127 9 255 0 0
4.3151 7.2796 1.1222 15 0 255 0
4.3647 7.285 1.1243 15 0 255 0
4.5158 7.2894 1.1202 9 255 0 0
4.5299 7.3005 1.121 9 255 0 0
4.353 7.2889 1.1189 15 0 255 0
4.3736 7.2928 1.1274 15 0 255 0
4.3457 7.3063 1.1155 15 0 255 0
4.4183 7.2925 1.1219 19 0 0 255
4.2995 7.2938 1.1282 15 0 255 0
4.5194 7.2817 1.1273 9 255 0 0
4.5116 7.2854 1.1222 9 255 0 0
4.5223 7.2911 1.1198 9 255 0 0
4.5333 7.2863 1.123 9 255 0 0
4.4758 7.2832 1.1229 9 255 0 0
4.4724 7.2958 1.1165 9 255 0 0
4.451 7.2977 1.1246 9 255 0 0
4.428 7.2948 1.1278 19 0 0 255
4.5019 7.2993 1.1287 9 255 0 0
4.4965 7.2979 1.1233 9 255 0 0
4.3212 7.3047 1.1204 15 0 255 0
4.5259 7.3024 1.1231 9 255 0 0
4.4963 7.2961 1.1233 9 255 0 0
4.4586 7.2925 1.1326 9 255 0 0
4.5083 7.2982 1.1208 9 255 0 0
4.481 7.2995 1.1186 9 255 0 0
4.465 7.2857 1.1253 9 255 0 0
4.3129 7.2793 1.1229 15 0 255 0
4.4637 7.2861 1.1237 9 255 0 0
4.4947 7.2923 1.132 9 255 0 0
4.3995 7.296 1.1289 19 0 0 255
4.529 7.2989 1.1194 9 255 0 0
4.413 7.2901 1.1239 19 0 0 255
4.5114 7.2965 1.1206 9 255 0 0
4.4699 7.2963 1.1311 9 255 0 0
4.4992 7.2834 1.129 9 255 0 0
4.4226 7.296 1.1313 19 0 0 255
4.3652 7.2966 1.1245 15 0 255 0
4.4904 7.2978 1.1156 9 255 0 0
4.3207 7.3011 1.1206 15 0 255 0
4.4578 7.2968 1.1191 9 255 0 0
4.3556 7.3041 1.1183 15 0 255 0
4.5056 7.291 1.1226 9 255 0 0
4.5204 7.2931 1.1216 9 255 0 0
4.5159 7.2939 1.1107 9 255 0 0
4.4961 7.2931 1.1318 9 255 0 0
4.5153 7.2874 1.1202 9 255 0 0
4.3328 7.2774 1.1173 15 0 255 0
4.4179 7.2898 1.1268 19 0 0 255
4.5054 7.2972 1.1303 9 255 0 0
4.4378 7.2855 1.1307 19 0 0 255
4.3219 7.2823 1.1183 15 0 255 0
4.3193 7.2951 1.1192 15 0 255 0
4.5161 7.2804 1.1252 9 255 0 0
4.4861 7.2992 1.1223 9 255 0 0
4.2985 7.2927 1.128 15 0 255 0
4.525 7.2821 1.1274 9 255 0 0
4.4206 7.286 1.1283 19 0 0 255
4.3041 7.2928 1.1263 15 0 255 0
4.33 7.2766 1.1166 15 0 255 0
4.432 7.2934 1.1276 19 0 0 255
4.4811 7.2926 1.1226 9 255 0 0
4.4659 7.2997 1.1262 9 255 0 0
4.3569 7.29 1.1188 15 0 255 0
4.3532 7.2936 1.1191 15 0 255 0
4.3345 7.2866 1.1171 15 0 255 0
4.5092 7.2928 1.1207 9 255 0 0
4.4557 7.2876 1.1243 19 0 0 255
4.4337 7.2917 1.1274 19 0 0 255
4.3553 7.2982 1.1199 15 0 255 0
4.5308 7.2832 1.1241 9 255 0 0
4.484 7.2924 1.1142 9 255 0 0
4.3521 7.2797 1.1186 15 0 255 0
4.3455 7.2787 1.117 15 0 255 0
4.4955 7.3007 1.1264 9 255 0 0
4.4237 7.2852 1.1248 19 0 0 255
4.3253 7.2859 1.1174 15 0 255 0
4.467 7.2827 1.1269 9 255 0 0
4.3289 7.2892 1.1182 15 0 255 0
4.4922 7.2995 1.117 9 255 0 0
4.4093 7.288 1.1236 19 0 0 255
4.47 7.2999 1.125 9 255 0 0
4.5038 7.2831 1.1149 9 255 0 0
4.5286 7.2865 1.1193 9 255 0 0
4.4171 7.2963 1.1286 19 0 0 255
4.3418 7.2759 1.1165 15 0 255 0
4.3098 7.3034 1.1236 15 0 255 0
4.4799 7.3006 1.1224 9 255 0 0
4.5189 7.299 1.1218 9 255 0 0
4.509 7.2973 1.1224 9 255 0 0
4.3623 7.295 1.1233 15 0 255 0
4.5212 7.2982 1.1119 9 255 0 0
4.4349 7.2899 1.1331 19 0 0 255
4.4503 7.2986 1.1229 9 255 0 0
4.5017 7.2806 1.1237 9 255 0 0
4.3769 7.2899 1.1282 15 0 255 0
4.5149 7.2815 1.1219 9 255 0 0
4.4791 7.2941 1.1319 9 255 0 0
4.4171 7.2862 1.1242 19 0 0 255
4.4358 7.2931 1.1256 19 0 0 255
4.5256 7.2831 1.1212 9 255 0 0
4.5168 7.2903 1.1218 9 255 0 0
4.464 7.2924 1.1165 9 255 0 0
4.4677 7.2883 1.1251 9 255 0 0
4.5233 7.2868 1.1105 9 255 0 0
4.4838 7.2848 1.1224 9 255 0 0
4.4777 7.2821 1.1208 9 255 0 0
4.5264 7.2821 1.1195 9 255 0 0
4.321 7.2938 1.1204 15 0 255 0
4.5152 7.2924 1.1106 9 255 0 0
4.4089 7.2859 1.1303 19 0 0 255
4.3792 7.2908 1.1269 15 0 255 0
4.2998 7.3004 1.1281 15 0 255 0
4.4691 7.2826 1.1213 9 255 0 0
4.4925 7.3003 1.1235 9 255 0 0
4.3945 7.2888 1.13 19 0 0 255
4.5314 7.2849 1.1155 9 255 0 0
4.4654 7.2998 1.1242 9 255 0 0
4.5291 7.2894 1.121 9 255 0 0
4.4173 7.2914 1.1269 19 0 0 255
4.5266 7.2996 1.1196 9 255 0 0
4.5075 7.2817 1.1272 9 255 0 0
4.329 7.2871 1.1182 15 0 255 0
4.4616 7.2861 1.1255 9 255 0 0
4.4725 7.2978 1.1232 9 255 0 0
4.4929 7.2849 1.1217 9 255 0 0
4.5296 7.2964 1.1282 9 255 0 0
4.4823 7.2952 1.1151 9 255 0 0
4.345 7.2858 1.1153 15 0 255 0
4.3457 7.2844 1.1154 15 0 255 0
4.3424 7.2899 1.1165 15 0 255 0
4.4444 7.2963 1.1312 19 0 0 255
4.4876 7.2921 1.1138 9 255 0 0
4.4335 7.2851 1.1232 19 0 0 255
4.5317 7.2947 1.1271 9 255 0 0
4.4622 7.2965 1.131 9 255 0 0
4.4197 7.2873 1.1322 19 0 0 255
4.494 7.2829 1.1233 9 255 0 0
4.3645 7.2816 1.1242 15 0 255 0
4.5214 7.2887 1.11 9 255 0 0
4.3549 7.2956 1.1197 15 0 255 0
4.3597 7.3013 1.1202 15 0 255 0
4.4956 7.2845 1.1149 9 255 0 0
4.3037 7.2883 1.1264 15 0 255 0
4.4591 7.2853 1.124 9 255 0 0
4.3698 7.2985 1.1245 15 0 255 0
4.4594 7.2848 1.1195 9 255 0 0
4.3911 7.294 1.1283 19 0 0 255
4.4838 7.3008 1.1241 9 255 0 0
4.3329 7.2872 1.1174 15 0 255 0
4.3259 7.2824 1.1182 15 0 255 0
4.4991 7.2897 1.1214 9 255 0 0
4.3134 7.2939 1.1211 15 0 255 0
4.4335 7.2875 1.1274 19 0 0 255
4.2968 7.3015 1.1292 15 0 255 0
4.3804 7.2915 1.1289 15 0 255 0
4.4474 7.2869 1.1318 19 0 0 255
4.4751 7.2909 1.1324 9 255 0 0
4.5088 7.292 1.1317 9 255 0 0
4.3514 7.3025 1.1168 15 0 255 0
4.516 7.3003 1.1277 9 255 0 0
4.4338 7.2971 1.1303 19 0 0 255
4.5221 7.2816 1.1198 9 255 0 0
4.4557 7.2977 1.1203 9 255 0 0
4.4309 7.2952 1.126 19 0 0 255
4.4077 7.2867 1.1275 19 0 0 255
4.3241 7.3032 1.1196 15 0 255 0
4.3802 7.2869 1.1286 15 0 255 0
4.4661 7.2838 1.1252 9 255 0 0
4.4775 7.2943 1.1319 9 255 0 0
4.4714 7.297 1.1306 9 255 0 0
4.4875 7.3007 1.1258 9 255 0 0
4.4912 7.2952 1.1314 9 255 0 0
4.3699 7.2874 1.1244 15 0 255 0
4.4746 7.2859 1.131 9 255 0 0
4.4012 7.296 1.128 19 0 0 255
4.4555 7.2905 1.1175 9 255 0 0
4.4112 7.2927 1.1227 19 0 0 255
4.3384 7.2971 1.1164 15 0 255 0
4.4414 7.2939 1.1253 19 0 0 255
4.4403 7.2917 1.1253 19 0 0 255
4.5058 7.2833 1.1144 9 255 0 0
4.5124 7.2841 1.113 9 255 0 0
4.4675 7.2824 1.1234 9 255 0 0
4.4783 7.2862 1.1227 9 255 0 0
4.4094 7.2931 1.1291 19 0 0 255
4.533 7.2899 1.1148 9 255 0 0
4.2994 7.2809 1.1263 15 0 255 0
4.5051 7.2842 1.1209 9 255 0 0
4.5097 7.2821 1.1152 9 255 0 0
4.325 7.2873 1.1175 15 0 255 0
4.5025 7.2937 1.1317 9 255 0 0
4.3523 7.285 1.117 15 0 255 0
4.3487 7.289 1.1177 15 0 255 0
4.5165 7.3027 1.1212 9 255 0 0
4.5204 7.2923 1.11 9 255 0 0
4.3733 7.2961 1.1273 15 0 255 0
4.5097 7.3008 1.1207 9 255 0 0
4.4803 7.2894 1.1226 9 255 0 0
4.529 7.3005 1.1168 9 255 0 0
4.4746 7.2853 1.117 9 255 0 0
4.4869 7.2906 1.1322 9 255 0 0
4.5301 7.2874 1.1126 9 255 0 0
4.3757 7.2944 1.1262 15 0 255 0
4.4752 7.2878 1.1229 9 255 0 0
4.4067 7.2908 1.1337 19 0 0 255
4.5172 7.3018 1.1256 9 255 0 0
4.5002 7.2934 1.1125 9 255 0 0
4.3585 7.2986 1.1214 15 0 255 0
4.3156 7.2827 1.1203 15 0 255 0
4.4032 7.2948 1.1248 19 0 0 255
4.4593 7.2832 1.122 9 255 0 0
4.4417 7.2849 1.1301 19 0 0 255
4.5164 7.2796 1.1207 9 255 0 0
4.4462 7.2979 1.1221 9 255 0 0
4.4466 7.2876 1.1265 19 0 0 255
4.4519 7.2967 1.1309 19 0 0 255
4.3421 7.2806 1.115 15 0 255 0
4.3648 7.2911 1.1225 15 0 255 0
4.4154 7.2853 1.1277 19 0 0 255
4.3457 7.2768 1.117 15 0 255 0
4.4103 7.2948 1.1274 19 0 0 255
4.529 7.2838 1.114 9 255 0 0
4.3271 7.2769 1.1169 15 0 255 0
4.4411 7.2853 1.1216 19 0 0 255
4.4136 7.2917 1.1325 19 0 0 255
4.4857 7.2951 1.124 9 255 0 0
4.5307 7.2976 1.1263 9 255 0 0
4.3489 7.3029 1.1178 15 0 255 0
4.4329 7.2924 1.1331 19 0 0 255
4.4185 7.2859 1.1308 19 0 0 255
4.4741 7.2926 1.1154 9 255 0 0
4.3326 7.2937 1.1175 15 0 255 0
4.5284 7.2809 1.1226 9 255 0 0
4.3736 7.2877 1.1273 15 0 255 0
4.4156 7.2934 1.1224 19 0 0 255
4.3552 7.3036 1.1199 15 0 255 0
4.5295 7.2923 1.1115 9 255 0 0
4.4156 7.286 1.1309 19 0 0 255
4.4505 7.2903 1.1246 19 0 0 255
4.5268 7.2954 1.1212 9 255 0 0
4.2909 7.2934 1.1322 15 0 255 0
4.3272 7.2815 1.1169 15 0 255 0
4.4024 7.2909 1.1313 19 0 0 255
4.4369 7.293 1.133 19 0 0 255
4.3382 7.2854 1.1151 15 0 255 0
4.2947 7.2927 1.1296 15 0 255 0
4.5124 7.2886 1.1111 9 255 0 0
4.5019 7.2981 1.1297 9 255 0 0
4.474 7.2945 1.1231 9 255 0 0
4.3249 7.2813 1.1192 15 0 255 0
4.506 7.2817 1.1272 9 255 0 0
4.4302 7.2848 1.1259 19 0 0 255
4.5188 7.2964 1.1201 9 255 0 0
4.3358 7.2823 1.1167 15 0 255 0
4.493 7.2943 1.1135 9 255 0 0
4.5184 7.2914 1.1316 9 255 0 0
4.4526 7.2865 1.1315 9 255 0 0
4.4927 7.281 1.123 9 255 0 0
4.2975 7.288 1.1272 15 0 255 0
4.5046 7.2865 1.1226 9 255 0 0
4.4777 7.2901 1.1323 9 255 0 0
4.4195 7.2914 1.1216 19 0 0 255
4.5322 7.2861 1.1156 9 255 0 0
4.4324 7.2959 1.1316 19 0 0 255
4.433 7.2943 1.1207 19 0 0 255
4.5029 7.2908 1.1211 9 255 0 0
4.4732 7.2962 1.1231 9 255 0 0
4.5311 7.2829 1.1198 9 255 0 0
4.4678 7.293 1.1162 9 255 0 0
4.406 7.2928 1.1234 19 0 0 255
4.3051 7.2867 1.124 15 0 255 0
4.5138 7.28 1.1203 9 255 0 0
4.4476 7.2981 1.1249 9 255 0 0
4.4869 7.2855 1.1153 9 255 0 0
4.4667 7.2936 1.1252 9 255 0 0
4.4537 7.2855 1.1244 9 255 0 0
4.5037 7.302 1.1226 9 255 0 0
4.52 7.2813 1.1199 9 255 0 0
4.4831 7.2834 1.1289 9 255 0 0
4.511 7.3019 1.1249 9 255 0 0
4.4198 7.2894 1.1333 19 0 0 255
4.3241 7.3017 1.1178 15 0 255 0
4.5212 7.2962 1.1306 9 255 0 0
4.3364 7.2784 1.1168 15 0 255 0
4.4767 7.2886 1.1229 9 255 0 0
4.4669 7.2999 1.1241 9 255 0 0
4.3163 7.294 1.1201 15 0 255 0
4.4931 7.2887 1.1234 9 255 0 0
4.4848 7.2902 1.1322 9 255 0 0
4.5271 7.2967 1.1195 9 255 0 0
4.4322 7.2902 1.1275 19 0 0 255
4.5044 7.2911 1.1117 9 255 0 0
4.4577 7.2894 1.1173 19 0 0 255
4.4715 7.2843 1.1183 9 255 0 0
4.5152 7.2811 1.1266 9 255 0 0
4.4379 7.2861 1.1212 19 0 0 255
4.3666 7.2994 1.1251 15 0 255 0
4.4382 7.2958 1.1272 19 0 0 255
4.4534 7.2979 1.1245 9 255 0 0
4.4905 7.3009 1.1198 9 255 0 0
4.3227 7.2895 1.1196 15 0 255 0
4.3368 7.3061 1.1169 15 0 255 0
4.4144 7.287 1.1321 19 0 0 255
4.3668 7.2916 1.1251 15 0 255 0
4.3064 7.2894 1.1242 15 0 255 0
4.4556 7.2849 1.1302 9 255 0 0
4.4783 7.2935 1.1228 9 255 0 0
4.5023 7.3019 1.1215 9 255 0 0
4.2905 7.289 1.1322 15 0 255 0
4.349 7.2811 1.116 15 0 255 0
4.4195 7.2971 1.1281 19 0 0 255
4.4715 7.2955 1.1232 9 255 0 0
4.3993 7.2946 1.1281 19 0 0 255
4.5038 7.2957 1.131 9 255 0 0
4.4777 7.3001 1.1245 9 255 0 0
4.4314 7.2976 1.1246 19 0 0 255
4.3192 7.3011 1.121 15 0 255 0
4.355 7.294 1.1179 15 0 255 0
4.3074 7.281 1.1231 15 0 255 0
4.5283 7.2897 1.111 9 255 0 0
4.2944 7.2985 1.1301 15 0 255 0
4.4617 7.2977 1.1299 9 255 0 0
4.4935 7.2837 1.1293 9 255 0 0
4.4843 7.2816 1.1214 9 255 0 0
4.4634 7.2834 1.1282 9 255 0 0
4.4193 7.2908 1.1335 19 0 0 255
4.4702 7.2884 1.125 9 255 0 0
4.3918 7.291 1.1283 19 0 0 255
4.4425 7.294 1.1194 19 0 0 255
4.4278 7.2878 1.1261 19 0 0 255
4.4363 7.2899 1.133 19 0 0 255
4.4372 7.2884 1.1255 19 0 0 255
4.5211 7.2851 1.1215 9 255 0 0
4.3052 7.2894 1.1252 15 0 255 0
4.2998 7.2988 1.1281 15 0 255 0
4.3223 7.2797 1.1182 15 0 255 0
4.4913 7.2894 1.1219 9 255 0 0
4.3485 7.2943 1.1177 15 0 255 0
4.487 7.2959 1.1222 9 255 0 0
4.3655 7.2924 1.1246 15 0 255 0
4.4597 7.2859 1.1311 9 255 0 0
4.4647 7.2909 1.1237 9 255 0 0
4.3933 7.2956 1.1297 19 0 0 255
4.4246 7.291 1.1264 19 0 0 255
4.3529 7.301 1.1172 15 0 255 0
4.5127 7.301 1.1205 9 255 0 0
4.408 7.2961 1.1307 19 0 0 255
4.5251 7.2922 1.1213 9 255 0 0
4.3332 7.2798 1.1173 15 0 255 0
4.5053 7.2824 1.1155 9 255 0 0
4.4966 7.2854 1.1232 9 255 0 0
4.4759 7.291 1.1246 9 255 0 0
4.3709 7.297 1.1249 15 0 255 0
4.441 7.2852 1.1252 19 0 0 255
4.5234 7.2793 1.1199 9 255 0 0
4.3926 7.2911 1.13 19 0 0 255
4.4513 7.2942 1.1184 19 0 0 255
4.2963 7.2893 1.1296 15 0 255 0
4.4815 7.2926 1.1242 9 255 0 0
4.493 7.2887 1.1318 9 255 0 0
4.3629 7.3004 1.1218 15 0 255 0
4.5047 7.301 1.1227 9 255 0 0
4.4483 7.2986 1.1237 9 255 0 0
4.5239 7.2827 1.1284 9 255 0 0
4.3273 7.2876 1.1169 15 0 255 0
4.3588 7.2884 1.1215 15 0 255 0
4.4397 7.2847 1.1297 19 0 0 255
4.5296 7.2977 1.1273 9 255 0 0
4.4871 7.3006 1.1239 9 255 0 0
4.4077 7.288 1.1238 19 0 0 255
4.4755 7.2964 1.1247 9 255 0 0
4.3965 7.2949 1.1282 19 0 0 255
4.2995 7.2891 1.1281 15 0 255 0
4.4788 7.2952 1.1228 9 255 0 0
4.4283 7.2902 1.1278 19 0 0 255
4.4774 7.2873 1.1228 9 255 0 0
4.3501 7.2913 1.118 15 0 255 0
4.5041 7.2978 1.1211 9 255 0 0
4.5055 7.2881 1.1209 9 255 0 0
4.4589 7.2987 1.1214 9 255 0 0
4.4843 7.2883 1.1223 9 255 0 0
4.2975 7.2886 1.129 15 0 255 0
4.4823 7.2868 1.1241 9 255 0 0
4.4201 7.2959 1.1235 19 0 0 255
4.4131 7.2939 1.1288 19 0 0 255
4.5119 7.2949 1.1205 9 255 0 0
4.4135 7.2885 1.1319 19 0 0 255
4.4726 7.2985 1.1188 9 255 0 0
4.353 7.2987 1.119 15 0 255 0
4.2985 7.2834 1.1271 15 0 255 0
4.3199 7.3026 1.1191 15 0 255 0
4.3316 7.2969 1.116 15 0 255 0
4.4887 7.2879 1.1141 9 255 0 0
4.5221 7.2814 1.127 9 255 0 0
4.422 7.2875 1.1223 19 0 0 255
4.5178 7.2954 1.1109 9 255 0 0
4.4442 7.2858 1.125 19 0 0 255
4.3283 7.2776 1.1166 15 0 255 0
4.5034 7.2838 1.121 9 255 0 0
4.4556 7.2933 1.1325 9 255 0 0
4.5337 7.2893 1.1246 9 255 0 0
4.3208 7.2875 1.1187 15 0 255 0
4.361 7.3005 1.1208 15 0 255 0
4.3599 7.3022 1.1222 15 0 255 0
4.525 7.2927 1.1196 9 255 0 0
4.5269 7.3017 1.1242 9 255 0 0
4.3606 7.294 1.1224 15 0 255 0
4.4481 7.2922 1.1248 19 0 0 255
4.3723 7.2872 1.1269 15 0 255 0
4.3257 7.2895 1.1184 15 0 255 0
4.4327 7.2939 1.1327 19 0 0 255
4.4637 7.2898 1.1237 9 255 0 0
4.3234 7.2773 1.1179 15 0 255 0
4.453 7.2942 1.1183 9 255 0 0
4.363 7.2788 1.1229 15 0 255 0
4.4698 7.2886 1.1233 9 255 0 0
4.3696 7.299 1.1262 15 0 255 0
4.4126 7.2925 1.1288 19 0 0 255
4.3404 7.2759 1.1162 15 0 255 0
4.4979 7.2957 1.1231 9 255 0 0
4.3569 7.2971 1.1188 15 0 255 0
4.4284 7.287 1.1218 19 0 0 255
4.463 7.2986 1.1288 9 255 0 0
4.414 7.2854 1.1273 19 0 0 255
4.3563 7.2938 1.1203 15 0 255 0
4.4273 7.2927 1.1332 19 0 0 255
4.5022 7.2884 1.1211 9 255 0 0
4.2935 7.2989 1.1291 15 0 255 0
4.4129 7.2868 1.1288 19 0 0 255
4.3616 7.2936 1.1211 15 0 255 0
4.5096 7.2989 1.1207 9 255 0 0
4.4923 7.301 1.1255 9 255 0 0
4.2956 7.2869 1.1292 15 0 255 0
4.4232 7.2972 1.1265 19 0 0 255
4.4162 7.2857 1.1252 19 0 0 255
4.5123 7.2817 1.1221 9 255 0 0
4.5138 7.2806 1.122 9 255 0 0
4.4885 7.289 1.1319 9 255 0 0
4.4627 7.2915 1.1238 9 255 0 0
4.5049 7.2872 1.1124 9 255 0 0
4.4509 7.2917 1.1246 19 0 0 255
4.4139 7.2956 1.1242 19 0 0 255
4.5239 7.2944 1.1197 9 255 0 0
4.2969 7.2808 1.1293 15 0 255 0
4.4668 7.2838 1.1195 9 255 0 0
4.4118 7.2879 1.1328 19 0 0 255
4.3072 7.3031 1.1244 15 0 255 0
4.4181 7.289 1.1221 19 0 0 255
4.5181 7.2879 1.1201 9 255 0 0
4.3374 7.3058 1.1152 15 0 255 0
4.3356 7.2895 1.1152 15 0 255 0
4.5268 7.2981 1.1287 9 255 0 0
4.4895 7.2819 1.1266 9 255 0 0
4.3442 7.3059 1.1154 15 0 255 0
4.4522 7.286 1.1245 9 255 0 0
4.3045 7.2815 1.126 15 0 255 0
4.3525 7.2868 1.117 15 0 255 0
4.5282 7.2941 1.1211 9 255 0 0
4.4749 7.2998 1.123 9 255 0 0
4.3143 7.2827 1.1209 15 0 255 0
4.341 7.295 1.1151 15 0 255 0
4.2999 7.287 1.1279 15 0 255 0
4.5238 7.3005 1.1137 9 255 0 0
4.4743 7.2821 1.1251 9 255 0 0
4.4616 7.2898 1.1168 9 255 0 0
4.3402 7.2926 1.1163 15 0 255 0
4.4564 7.2953 1.1243 9 255 0 0
4.5247 7.3022 1.1167 9 255 0 0
4.3449 7.2896 1.1153 15 0 255 0
4.366 7.2871 1.1248 15 0 255 0
4.3548 7.2872 1.1196 15 0 255 0
4.5059 7.286 1.1209 9 255 0 0
4.4147 7.2856 1.1256 19 0 0 255
4.4065 7.2876 1.1292 19 0 0 255
4.483 7.3008 1.1229 9 255 0 0
4.3531 7.2812 1.1189 15 0 255 0
4.5277 7.2984 1.1212 9 255 0 0
4.435 7.2979 1.1274 19 0 0 255
4.5082 7.301 1.1208 9 255 0 0
4.3388 7.3052 1.1152 15 0 255 0
4.4221 7.2889 1.1217 19 0 0 255
4.3882 7.2869 1.1298 15 0 255 0
4.5072 7.2925 1.1317 9 255 0 0
4.3159 7.286 1.1214 15 0 255 0
4.3076 7.2959 1.1234 15 0 255 0
4.458 7.2846 1.12 9 255 0 0
4.355 7.276 1.1196 15 0 255 0
4.4737 7.2939 1.1157 9 255 0 0
4.4501 7.2887 1.1263 19 0 0 255
4.3319 7.2936 1.1159 15 0 255 0
4.3713 7.2971 1.1267 15 0 255 0
4.499 7.2849 1.1213 9 255 0 0
4.4784 7.2856 1.1164 9 255 0 0
4.4254 7.2924 1.1263 19 0 0 255
4.3499 7.2844 1.1179 15 0 255 0
4.4943 7.2984 1.1295 9 255 0 0
4.3469 7.2809 1.1173 15 0 255 0
4.4406 7.2943 1.1324 19 0 0 255
4.3181 7.3026 1.1196 15 0 255 0
4.3647 7.2798 1.1242 15 0 255 0
4.4796 7.2956 1.1156 9 255 0 0
4.4823 7.2915 1.1225 9 255 0 0
4.5064 7.2894 1.1209 9 255 0 0
4.5274 7.3021 1.1209 9 255 0 0
4.4918 7.2973 1.1151 9 255 0 0
4.3561 7.3063 1.1185 15 0 255 0
4.3701 7.2832 1.1259 15 0 255 0
4.4702 7.2822 1.1248 9 255 0 0
4.4391 7.2889 1.1328 19 0 0 255
4.4949 7.2983 1.1234 9 255 0 0
4.4295 7.2949 1.1261 19 0 0 255
4.4626 7.2826 1.1238 9 255 0 0
4.2909 7.2891 1.1303 15 0 255 0
4.5339 7.2911 1.1246 9 255 0 0
4.5256 7.2851 1.1195 9 255 0 0
4.4884 7.2813 1.124 9 255 0 0
4.4225 7.2916 1.1282 19 0 0 255
4.4161 7.2898 1.1269 19 0 0 255
4.4125 7.2953 1.132 19 0 0 255
4.32 7.3044 1.1191 15 0 255 0
4.3591 7.2884 1.1198 15 0 255 0
4.4568 7.2854 1.1192 9 255 0 0
4.4911 7.2971 1.1219 9 255 0 0
4.5168 7.281 1.1201 9 255 0 0
4.3746 7.2857 1.126 15 0 255 0
4.4352 7.2977 1.1239 19 0 0 255
4.3385 7.2897 1.1157 15 0 255 0
4.3994 7.2879 1.1297 19 0 0 255
4.524 7.2892 1.1312 9 255 0 0
4.3692 7.2902 1.1242 15 0 255 0
4.3107 7.2894 1.122 15 0 255 0
4.5024 7.2826 1.1211 9 255 0 0
4.4297 7.2869 1.1277 19 0 0 255
4.4582 7.2876 1.132 9 255 0 0
4.4282 7.2971 1.124 19 0 0 255
4.489 7.2981 1.1238 9 255 0 0
4.4632 7.2884 1.1238 9 255 0 0
4.3879 7.2952 1.1298 15 0 255 0
4.4058 7.2951 1.1293 19 0 0 255
4.4152 7.2855 1.1296 19 0 0 255
4.3343 7.3046 1.1172 15 0 255 0
4.4362 7.2973 1.13 19 0 0 255
4.4689 7.296 1.1251 9 255 0 0
4.3398 7.2773 1.1166 15 0 255 0
4.4254 7.2867 1.1318 19 0 0 255
4.3752 7.2931 1.1261 15 0 255 0
4.4571 7.2983 1.1259 9 255 0 0
4.5251 7.2961 1.1109 9 255 0 0
4.3739 7.2922 1.1257 15 0 255 0
4.4716 7.2883 1.1249 9 255 0 0
4.4737 7.283 1.1282 9 255 0 0
4.5217 7.2923 1.1215 9 255 0 0
4.5233 7.2823 1.1132 9 255 0 0
4.5342 7.2928 1.1181 9 255 0 0
4.5312 7.2946 1.1209 9 255 0 0
4.3337 7.2763 1.1163 15 0 255 0
4.4506 7.2857 1.1246 19 0 0 255
4.3882 7.2924 1.1298 19 0 0 255
4.3179 7.2797 1.1213 15 0 255 0
4.5307 7.2932 1.1285 9 255 0 0
4.3171 7.2791 1.1197 15 0 255 0
4.4373 7.2842 1.1246 19 0 0 255
4.5225 7.2861 1.1198 9 255 0 0
4.4372 7.2922 1.1255 19 0 0 255
4.5061 7.2939 1.1316 9 255 0 0
4.3633 7.2982 1.1238 15 0 255 0
4.3677 7.2897 1.1237 15 0 255 0
4.3055 7.2809 1.1238 15 0 255 0
4.3679 7.298 1.1256 15 0 255 0
4.4293 7.2854 1.1233 19 0 0 255
4.454 7.2831 1.1249 9 255 0 0
4.412 7.2953 1.124 19 0 0 255
4.5138 7.2938 1.1314 9 255 0 0
4.4048 7.2861 1.1266 19 0 0 255
4.3649 7.28 1.1226 15 0 255 0
4.3475 7.2789 1.1174 15 0 255 0
4.4948 7.285 1.1216 9 255 0 0
4.3447 7.2884 1.1169 15 0 255 0
4.3525 7.296 1.1188 15 0 255 0
4.4063 7.2917 1.1276 19 0 0 255
4.483 7.2819 1.1201 9 255 0 0
4.4497 7.2863 1.1196 19 0 0 255
4.3605 7.3039 1.1225 15 0 255 0
4.4854 7.2962 1.1223 9 255 0 0
4.3554 7.2857 1.1181 15 0 255 0
4.5135 7.2973 1.1221 9 255 0 0
4.4541 7.2909 1.1176 9 255 0 0
4.465 7.294 1.1167 9 255 0 0
4.476 7.297 1.123 9 255 0 0
4.5093 7.2874 1.1312 9 255 0 0
4.3709 7.2903 1.1248 15 0 255 0
4.5074 7.2943 1.1118 9 255 0 0
4.391 7.2867 1.1299 15 0 255 0
4.5256 7.2973 1.1115 9 255 0 0
4.4391 7.2908 1.1331 19 0 0 255
4.3584 7.2791 1.1194 15 0 255 0
4.4399 7.2935 1.1254 19 0 0 255
4.4559 7.2837 1.1217 9 255 0 0
4.312 7.3037 1.1231 15 0 255 0
4.4544 7.2967 1.1261 9 255 0 0
4.4691 7.2893 1.116 9 255 0 0
4.4467 7.2852 1.1209 19 0 0 255
4.5106 7.2926 1.1316 9 255 0 0
4.5343 7.2912 1.1233 9 255 0 0
4.4261 7.2942 1.1215 19 0 0 255
4.4544 7.2989 1.1274 9 255 0 0
4.4917 7.2931 1.1319 9 255 0 0
4.4915 7.2982 1.1297 9 255 0 0
4.4708 7.2911 1.1325 9 255 0 0
4.4301 7.2967 1.1307 19 0 0 255
4.4899 7.298 1.122 9 255 0 0
4.5085 7.2831 1.1288 9 255 0 0
4.2958 7.2941 1.1298 15 0 255 0
4.336 7.3051 1.1153 15 0 255 0
4.4715 7.2958 1.1249 9 255 0 0
4.5005 7.2908 1.1319 9 255 0 0
4.4533 7.2921 1.1177 19 0 0 255
4.4517 7.2844 1.1296 19 0 0 255
4.4302 7.2917 1.126 19 0 0 255
4.4276 7.2945 1.1214 19 0 0 255
4.2985 7.2804 1.128 15 0 255 0
4.3539 7.2922 1.1192 15 0 255 0
4.4843 7.2953 1.1149 9 255 0 0
4.5075 7.2994 1.1225 9 255 0 0
4.4263 7.2964 1.1263 19 0 0 255
4.2949 7.3 1.1303 15 0 255 0
4.4226 7.2918 1.1213 19 0 0 255
4.4359 7.2852 1.1304 19 0 0 255
4.5212 7.303 1.1196 9 255 0 0
4.454 7.2872 1.1184 9 255 0 0
4.4361 7.291 1.1196 19 0 0 255
4.4075 7.292 1.1336 19 0 0 255
4.5101 7.2829 1.1286 9 255 0 0
4.4949 7.2822 1.1172 9 255 0 0
4.4996 7.2998 1.1214 9 255 0 0
4.4712 7.2862 1.1312 9 255 0 0
4.4468 7.2899 1.1328 19 0 0 255
4.5254 7.2847 1.1117 9 255 0 0
4.4992 7.2864 1.1133 9 255 0 0
4.4428 7.2893 1.1328 19 0 0 255
4.4924 7.2938 1.1218 9 255 0 0
4.412 7.2937 1.1272 19 0 0 255
4.4201 7.2856 1.1303 19 0 0 255
4.5133 7.3012 1.1265 9 255 0 0
4.4066 7.2956 1.1252 19 0 0 255
4.4405 7.2846 1.1228 19 0 0 255
4.5191 7.2852 1.12 9 255 0 0
4.4117 7.2856 1.1265 19 0 0 255
4.4613 7.2916 1.1168 9 255 0 0
4.5292 7.284 1.121 9 255 0 0
4.5303 7.2912 1.129 9 255 0 0
4.4607 7.2831 1.1239 9 255 0 0
4.5038 7.297 1.1133 9 255 0 0
4.3345 7.2968 1.1171 15 0 255 0
4.2936 7.2811 1.1307 15 0 255 0
4.3163 7.3024 1.1202 15 0 255 0
4.343 7.3007 1.1169 15 0 255 0
4.5079 7.2846 1.1299 9 255 0 0
4.4709 7.2968 1.1233 9 255 0 0
4.3297 7.3018 1.1181 15 0 255 0
4.5252 7.3028 1.1205 9 255 0 0
4.4774 7.2867 1.1158 9 255 0 0
4.534 7.2945 1.1224 9 255 0 0
4.4427 7.2889 1.1251 19 0 0 255
4.338 7.2957 1.1168 15 0 255 0
4.426 7.2849 1.1248 19 0 0 255
4.4209 7.2866 1.1317 19 0 0 255
4.2973 7.2986 1.1275 15 0 255 0
4.4978 7.2814 1.1231 9 255 0 0
4.33 7.3057 1.118 15 0 255 0
4.5066 7.2807 1.1181 9 255 0 0
4.4811 7.2999 1.1273 9 255 0 0
4.3895 7.2875 1.1299 19 0 0 255
4.5039 7.2954 1.1126 9 255 0 0
4.4575 7.2871 1.1258 9 255 0 0
4.4499 7.2976 1.1211 9 255 0 0
4.438 7.2848 1.1271 19 0 0 255
4.4046 7.2933 1.1332 19 0 0 255
4.4873 7.2935 1.1238 9 255 0 0
4.4657 7.283 1.1212 9 255 0 0
4.3351 7.2762 1.1159 15 0 255 0
4.4927 7.2975 1.1235 9 255 0 0
4.4038 7.2907 1.1325 19 0 0 255
4.5114 7.2984 1.1294 9 255 0 0
4.3578 7.2838 1.1192 15 0 255 0
4.4781 7.288 1.1319 9 255 0 0
4.3782 7.2867 1.1274 15 0 255 0
4.5044 7.2988 1.1293 9 255 0 0
4.5252 7.2806 1.1252 9 255 0 0
4.3044 7.2795 1.1255 15 0 255 0
4.5225 7.2974 1.1112 9 255 0 0
4.4412 7.2839 1.1269 19 0 0 255
4.4822 7.2978 1.1242 9 255 0 0
4.391 7.2955 1.129 19 0 0 255
4.3101 7.3025 1.1223 15 0 255 0
4.5262 7.2869 1.1109 9 255 0 0
4.436 7.2945 1.1256 19 0 0 255
4.4353 7.295 1.1208 19 0 0 255
4.4163 7.2949 1.1231 19 0 0 255
4.3276 7.2896 1.1172 15 0 255 0
4.3599 7.2789 1.1201 15 0 255 0
4.5089 7.2818 1.1273 9 255 0 0
4.497 7.2867 1.1311 9 255 0 0
4.3597 7.2999 1.1202 15 0 255 0
4.5331 7.2914 1.126 9 255 0 0
4.4932 7.2828 1.1217 9 255 0 0
4.4911 7.2884 1.1236 9 255 0 0
4.5317 7.2895 1.1133 9 255 0 0
4.3561 7.2777 1.1183 15 0 255 0
4.5185 7.2804 1.1217 9 255 0 0
4.5 7.2913 1.1213 9 255 0 0
4.3452 7.2833 1.117 15 0 255 0
4.5033 7.2887 1.1227 9 255 0 0
4.5044 7.2859 1.1129 9 255 0 0
4.4191 7.2891 1.1284 19 0 0 255
