ply
format ascii 1.0
comment author Paulo Abelha (p.abelha at abdn ac uk)
element vertex 724
property float x
property float y
property float z
property int segm
property float nx
property float ny
property float nz
property uchar red
property uchar green
property uchar blue
end_header
0.070008 -0.0080286 -0.003549 1 0.054474 0.98967 0.13259 0 255 0
0.073098 -0.010518 -0.0035664 1 -0.21662 -0.19623 -0.95633 0 255 0
0.073608 -0.0073887 -0.0063365 1 0.075617 0.93085 -0.35748 0 255 0
0.076138 -0.011918 -0.0049489 1 0.034889 -0.063672 0.99736 0 255 0
0.077428 -0.010768 -0.0045086 1 -0.28315 -0.13512 0.94951 0 255 0
0.077958 -0.012018 -0.00384 1 -0.021254 0.29218 -0.95613 0 255 0
0.076338 -0.0088887 -0.0051805 1 0.059433 -0.79543 -0.60313 0 255 0
0.074088 -0.010578 -0.0052006 1 0.049837 -0.68553 0.72634 0 255 0
0.078168 -0.0088287 -0.0067446 1 0.050489 0.89588 0.44142 0 255 0
0.073898 -0.0088187 -0.0059074 1 0.037674 0.5614 0.82668 0 255 0
0.074698 -0.0075887 -0.0053527 1 0.012075 -0.0082781 -0.99989 0 255 0
0.073338 -0.0077787 -0.0048043 1 -0.52988 -0.2573 0.8081 0 255 0
0.075988 -0.0074787 -0.0070859 1 0.065864 0.95497 -0.28928 0 255 0
0.077338 -0.010468 -0.0059665 1 -0.39398 0.27539 0.87689 0 255 0
0.074378 -0.011798 -0.0033931 1 0.002613 -0.0038477 -0.99999 0 255 0
0.075348 -0.0095087 -0.0061392 1 -0.26324 -0.8712 -0.41437 0 255 0
0.076638 -0.0087187 -0.0066318 1 -0.011996 0.0082701 0.99989 0 255 0
0.073878 -0.0092787 -0.0044354 1 0.10714 -0.28269 -0.95321 0 255 0
0.075728 -0.010188 -0.0045634 1 0.062272 0.31318 -0.94765 0 255 0
0.081398 -0.0074887 -0.0076113 1 0.62078 -0.60698 -0.4962 0 255 0
0.082528 -0.010828 -0.0050754 1 0.051988 0.97696 0.207 0 255 0
0.082568 -0.0090787 -0.0058214 1 0.029576 0.32022 0.94688 0 255 0
0.081208 -0.011738 -0.0045147 1 0.0478 0.70444 0.70816 0 255 0
0.080958 -0.011388 -0.0059575 1 0.061083 0.96324 0.2616 0 255 0
0.079478 -0.0099587 -0.0050915 1 0.012079 -0.0082535 -0.99989 0 255 0
0.079698 -0.011778 -0.0042521 1 0.012064 -0.0082596 -0.99989 0 255 0
0.080828 -0.0094187 -0.0067778 1 0.086653 0.36539 0.92681 0 255 0
0.079238 -0.0083987 -0.0057271 1 0.039465 0.99095 -0.12829 0 255 0
0.081418 -0.0080487 -0.0061235 1 -0.012042 0.0082698 0.99989 0 255 0
0.081198 -0.0097487 -0.0053784 1 0.57117 0.37333 0.73102 0 255 0
0.078948 -0.011218 -0.005779 1 0.067434 -0.49906 -0.86394 0 255 0
0.079508 -0.0075787 -0.0074152 1 0.012056 -0.0082534 -0.99989 0 255 0
0.082388 -0.0085787 -0.0072951 1 -0.011969 0.0083049 0.99989 0 255 0
0.082038 -0.010388 -0.0064947 1 -0.012054 0.0082439 0.99989 0 255 0
0.085038 -0.010118 -0.0056423 1 -0.17559 -0.56084 0.80909 0 255 0
0.084608 -0.0089687 -0.0073663 1 0.068477 -0.80635 0.58746 0 255 0
0.087298 -0.010228 -0.0054085 1 0.039426 0.31389 0.94864 0 255 0
0.085638 -0.0077187 -0.0065783 1 -0.011791 -0.73634 0.67651 0 255 0
0.086488 -0.010498 -0.0066607 1 0.048239 -0.99841 -0.029238 0 255 0
0.083408 -0.012308 -0.0057847 1 0.012073 -0.0082608 -0.99989 0 255 0
0.084818 -0.011418 -0.0063522 1 0.41103 -0.011952 -0.91154 0 255 0
0.085018 -0.011768 -0.0048767 1 0.064737 -0.207 -0.9762 0 255 0
0.088278 -0.012088 -0.0044632 1 -0.018118 0.013751 -0.99974 0 255 0
0.087308 -0.0079387 -0.007655 1 0.11857 -0.69327 -0.71085 0 255 0
0.088098 -0.0098987 -0.0067934 1 0.065515 -0.16367 -0.98434 0 255 0
0.087428 -0.0083787 -0.0062085 1 -0.35567 0.44072 0.82418 0 255 0
0.086098 -0.0090787 -0.0073568 1 0.32366 -0.49422 -0.80684 0 255 0
0.083718 -0.010468 -0.0066364 1 -0.036542 -0.58804 -0.808 0 255 0
0.086698 -0.011588 -0.0048258 1 0.48316 0.26465 -0.83457 0 255 0
0.084178 -0.0074987 -0.00783 1 0.052575 0.045747 -0.99757 0 255 0
0.088278 -0.011738 -0.0059208 1 -0.67307 -0.29437 -0.67848 0 255 0
0.090138 -0.011988 -0.0056375 1 -0.5594 -0.17114 0.81104 0 255 0
0.090398 -0.0075287 -0.0074166 1 -0.40988 0.061134 0.91009 0 255 0
0.091948 -0.0096487 -0.0065659 1 0.047494 0.52768 0.84811 0 255 0
0.091008 -0.010488 -0.0049875 1 0.1275 0.056538 -0.99023 0 255 0
0.091688 -0.012028 -0.0042182 1 0.042669 0.83761 0.5446 0 255 0
0.089558 -0.0096087 -0.0055138 1 -0.081986 -0.13825 -0.987 0 255 0
0.089598 -0.0091887 -0.0069908 1 0.34819 -0.44405 -0.82558 0 255 0
0.092158 -0.0076787 -0.0059112 1 0.051195 0.76788 0.63855 0 255 0
0.092238 -0.011598 -0.0056306 1 -0.16121 -0.31379 0.93571 0 255 0
0.089218 -0.011018 -0.0048882 1 0.05741 -0.087643 -0.9945 0 255 0
0.090558 -0.0079887 -0.0059917 1 0.012057 -0.0082598 -0.99989 0 255 0
0.088808 -0.0074787 -0.0063144 1 0.061942 -0.63377 -0.77104 0 255 0
0.093628 -0.0093287 -0.0065454 1 0.4383 -0.27214 -0.85664 0 255 0
0.095608 -0.0076387 -0.0067912 1 0.04078 0.54961 0.83443 0 255 0
0.093868 -0.012098 -0.0052494 1 -0.34162 0.26459 0.90183 0 255 0
0.095488 -0.011358 -0.0054488 1 0.062711 -0.91307 -0.40295 0 255 0
0.097238 -0.0081787 -0.0050177 1 0.052232 0.93509 0.35053 0 255 0
0.098168 -0.010438 -0.0052416 1 0.27364 0.1476 -0.95044 0 255 0
0.095948 -0.012028 -0.0037492 1 -0.43168 0.14607 0.89012 0 255 0
0.093508 -0.0099587 -0.0050374 1 -0.3123 -0.83254 -0.45755 0 255 0
0.095858 -0.0099187 -0.0048324 1 0.060708 -0.15839 -0.98551 0 255 0
0.094648 -0.0079687 -0.0055715 1 0.012038 -0.0082522 -0.99989 0 255 0
0.095628 -0.0092687 -0.0063339 1 0.053724 0.53853 0.84089 0 255 0
0.097128 -0.0094387 -0.0059419 1 0.22007 -0.67003 -0.70896 0 255 0
0.093778 -0.0077587 -0.0069669 1 0.22136 0.60959 -0.76119 0 255 0
0.10046 -0.011698 -0.0040084 1 0.045348 -0.97229 -0.22933 0 255 0
0.10307 -0.012078 -0.001926 1 -0.71342 0.40822 -0.56954 0 255 0
0.1002 -0.0092287 -0.0051316 1 0.076023 -0.49965 -0.86289 0 255 0
0.10111 -0.010468 -0.0032304 1 0.12744 -0.060494 -0.99 0 255 0
0.098658 -0.012148 -0.0042504 1 0.046066 0.03752 0.99823 0 255 0
0.098488 -0.010768 -0.0037435 1 0.29039 -0.0010742 -0.95691 0 255 0
0.10165 -0.0091187 -0.0047546 1 -0.42085 0.89323 -0.1582 0 255 0
0.1026 -0.010518 -0.0040398 1 0.074282 0.0026166 -0.99723 0 255 0
0.1023 -0.0081987 -0.0036256 1 0.062116 0.35867 -0.9314 0 255 0
0.098348 -0.0077987 -0.0060869 1 0.035663 -0.0052404 0.99935 0 255 0
0.10314 -0.0074187 -0.0048417 1 -0.5861 0.041649 0.80917 0 255 0
0.098508 -0.0090687 -0.0044017 1 0.38586 -0.28279 -0.87815 0 255 0
0.10216 -0.011968 -0.0034217 1 0.18119 0.56143 -0.80744 0 255 0
0.10584 -0.012108 -0.001212 1 -0.27703 0.095257 0.95613 0 255 0
0.10611 -0.010088 -0.0020195 1 -0.22838 0.34495 -0.91041 0 255 0
0.10517 -0.0084187 -0.0039627 1 -0.37081 0.32771 0.86897 0 255 0
0.1081 -0.0094287 -0.0026991 1 0.058563 0.9464 0.31764 0 255 0
0.10801 -0.011428 -0.0019904 1 0.030464 0.27837 0.95999 0 255 0
0.10349 -0.0092987 -0.0041747 1 -0.019973 -0.99421 0.10556 0 255 0
0.10659 -0.0089887 -0.0033913 1 -0.012062 0.0082451 0.99989 0 255 0
0.10794 -0.0080287 -0.0020113 1 0.012057 -0.0082466 -0.99989 0 255 0
0.10779 -0.012268 -0.00042983 1 0.045093 -0.89791 0.43786 0 255 0
0.10584 -0.0077187 -0.0028013 1 0.07891 0.85117 0.51892 0 255 0
0.10391 -0.010588 -0.0024612 1 0.053873 -0.6032 0.79577 0 255 0
0.10532 -0.010718 -0.0032226 1 -0.071438 -0.4065 0.91085 0 255 0
0.10381 -0.0074987 -0.0034236 1 0.060114 -0.94149 -0.33162 0 255 0
0.1066 -0.011428 -0.0025269 1 0.050281 -0.97762 -0.20427 0 255 0
0.10436 -0.0090287 -0.0028135 1 0.024199 0.33264 0.94274 0 255 0
0.10987 -0.0089387 -0.0020818 1 0.067065 -0.1587 -0.98505 0 255 0
0.1096 -0.011108 -0.00030875 1 -0.49714 0.13012 -0.85786 0 255 0
0.11165 -0.010758 -0.00071735 1 0.035471 0.84378 0.53551 0 255 0
0.11245 -0.011528 0.0010889 1 0.29039 -0.64064 -0.71081 0 255 0
0.11163 -0.0088787 -0.00015835 1 -0.21733 -0.58116 0.78423 0 255 0
0.11086 -0.011458 0.00039516 1 -0.08986 0.72582 0.68199 0 255 0
0.1088 -0.0097787 -0.0010803 1 0.05511 -0.99696 0.055165 0 255 0
0.11017 -0.010288 -0.0015137 1 -0.19298 -0.83922 0.50839 0 255 0
0.11206 -0.0080787 -0.0013931 1 -0.4245 0.44724 0.78726 0 255 0
0.10939 -0.0074887 -0.002757 1 0.50805 0.095355 -0.85603 0 255 0
0.11003 -0.0077087 -0.0012187 1 0.059466 -0.4954 -0.86663 0 255 0
0.11233 -0.010028 0.00050805 1 0.065098 0.45144 -0.88992 0 255 0
0.11637 -0.0080587 0.0016059 1 -0.012123 0.0083084 0.99989 0 255 0
0.1145 -0.011148 0.0017969 1 -0.012061 0.00825 0.99989 0 255 0
0.11345 -0.0094887 -0.00032955 1 0.058389 0.24998 0.96649 0 255 0
0.11656 -0.010878 0.001481 1 -0.078807 0.44699 0.89106 0 255 0
0.11536 -0.0075987 -9.9955e-05 1 0.023812 0.14028 0.98983 0 255 0
0.11819 -0.010878 0.0032859 1 -0.25348 0.24405 0.93605 0 255 0
0.11731 -0.0092687 0.0012919 1 0.05141 0.64868 0.75932 0 255 0
0.11407 -0.0086287 0.00080495 1 -0.079926 0.78864 0.60964 0 255 0
0.11529 -0.0099887 0.00063685 1 0.053058 0.28203 0.95794 0 255 0
0.11588 -0.011818 0.0026469 1 0.079497 -0.51404 0.85408 0 255 0
0.11373 -0.011108 0.00030875 1 0.057423 -0.87689 0.47725 0 255 0
0.12035 -0.012148 0.0049799 1 -0.57605 0.19705 0.79331 0 255 0
0.11856 -0.0082287 0.0015047 1 -0.5137 -0.10004 -0.85212 0 255 0
0.11988 -0.0092287 0.0036719 1 0.079234 -0.40188 -0.91226 0 255 0
0.12267 -0.011038 0.0058819 1 0.040628 0.10516 0.99363 0 255 0
0.12305 -0.0083087 0.0051789 1 0.032947 0.66035 -0.75024 0 255 0
0.11868 -0.0096987 0.0020349 1 0.043373 -0.56819 0.82175 0 255 0
0.12215 -0.012278 0.0049859 1 0.038501 0.67951 0.73265 0 255 0
0.12054 -0.010438 0.0044589 1 0.21864 0.57439 -0.78884 0 255 0
0.12206 -0.0097787 0.0051039 1 0.064751 0.83328 -0.54905 0 255 0
0.12146 -0.0093887 0.0035399 1 0.049386 0.10313 -0.99344 0 255 0
0.12261 -0.0080587 0.0037589 1 0.49473 -0.10362 -0.86285 0 255 0
0.1208 -0.0076987 0.0025759 1 -0.23444 -0.51525 0.82435 0 255 0
0.11985 -0.010568 0.0029969 1 0.036157 0.28525 0.95777 0 255 0
0.1258 -0.0083087 0.0057199 1 0.091524 -0.36047 -0.92827 0 255 0
0.12535 -0.0096987 0.0059249 1 0.32128 -0.44937 -0.83358 0 255 0
0.1249 -0.011648 0.0073659 1 0.51658 0.03581 0.85549 0 255 0
0.12392 -0.0099587 0.0062329 1 0.33358 0.43895 -0.8343 0 255 0
0.12805 -0.011548 0.0081409 1 0.04235 -0.24649 0.96822 0 255 0
0.12659 -0.010668 0.0069859 1 -0.3327 -0.37901 -0.86352 0 255 0
0.12695 -0.0088887 0.0065899 1 0.62171 -0.163 -0.7661 0 255 0
0.12796 -0.0088287 0.0081679 1 0.16575 0.97316 -0.15966 0 255 0
0.13167 -0.0083287 0.010289 1 0.043638 0.18375 0.982 0 255 0
0.12942 -0.0094287 0.0092119 1 0.048233 0.86619 0.49738 0 255 0
0.13327 -0.0094587 0.01087 1 0.045128 0.91427 0.40258 0 255 0
0.12944 -0.0085787 0.0079449 1 0.54623 -0.091588 -0.83261 0 255 0
0.13098 -0.010138 0.0094469 1 -0.47981 0.51146 -0.71288 0 255 0
0.13062 -0.011938 0.0098289 1 0.032784 0.094432 0.99499 0 255 0
0.13156 -0.010088 0.010837 1 0.012054 -0.0082603 -0.99989 0 255 0
0.12873 -0.010928 0.0093229 1 0.12729 -0.10528 -0.98626 0 255 0
0.1328 -0.010978 0.011071 1 0.05667 0.68427 -0.72702 0 255 0
0.13043 -0.0083187 0.0094129 1 0.061992 0.62675 -0.77675 0 255 0
0.1353 -0.0079987 0.011837 1 0.056481 -0.49284 -0.86829 0 255 0
0.1344 -0.0098087 0.011825 1 -0.2867 -0.0060566 -0.958 0 255 0
0.13376 -0.0077987 0.010635 1 0.093835 0.99548 -0.014825 0 255 0
0.13347 -0.011428 0.012305 1 0.01206 -0.0082678 -0.99989 0 255 0
0.13512 -0.0089787 0.012996 1 -0.81156 -0.34242 0.47342 0 255 0
0.060118 -0.0038486 -0.00096556 1 -0.21848 -0.42402 0.8789 0 255 0
0.061608 -0.0056886 0.00010334 1 0.2783 0.25804 -0.92518 0 255 0
0.060168 -0.0053486 0.00034124 1 0.49828 -0.23589 -0.83431 0 255 0
0.061958 -0.0036986 -0.00070706 1 0.06295 -0.16909 -0.98359 0 255 0
0.061558 -0.0028786 -0.0019648 1 0.11196 -0.4483 0.88685 0 255 0
0.062068 -0.0058486 -0.0014274 1 0.040717 0.4921 0.86958 0 255 0
0.062828 -0.0028786 -0.0027288 1 0.027094 0.45521 -0.88997 0 255 0
0.067578 -0.0025086 -0.005635 1 0.079946 0.053099 0.99538 0 255 0
0.065518 -0.0059486 -0.0023514 1 0.25032 -0.78557 -0.56588 0 255 0
0.068078 -0.0052786 -0.0038725 1 -0.25366 -0.34803 0.90251 0 255 0
0.067458 -0.0064486 -0.0046062 1 -0.41806 0.16516 0.89328 0 255 0
0.066658 -0.0038886 -0.0035655 1 0.055161 0.8204 0.56913 0 255 0
0.067138 -0.0043786 -0.0050437 1 -0.53218 0.6519 -0.54019 0 255 0
0.064048 -0.0064586 -0.0016223 1 -0.228 -0.44158 0.86777 0 255 0
0.063528 -0.0047986 -0.0027416 1 0.01207 -0.008253 -0.99989 0 255 0
0.063358 -0.0050586 -0.001227 1 0.026441 -0.33888 0.94046 0 255 0
0.066708 -0.0053586 -0.0033043 1 0.05128 0.94351 -0.32736 0 255 0
0.064268 -0.0030186 -0.0022589 1 0.28058 -0.75865 -0.58799 0 255 0
0.064958 -0.0048486 -0.0036314 1 0.076754 -0.82521 -0.55958 0 255 0
0.066128 -0.0070386 -0.0036995 1 -0.34915 -0.39522 0.84964 0 255 0
0.072048 -0.0071687 -0.0058896 1 0.031932 0.42521 0.90453 0 255 0
0.070258 -0.0043687 -0.0061123 1 0.045005 -0.65203 0.75685 0 255 0
0.071968 -0.0035387 -0.0068283 1 0.059832 -0.61848 -0.78352 0 255 0
0.071848 -0.0052087 -0.0050991 1 -0.09438 -0.28993 0.95238 0 255 0
0.069028 -0.0026686 -0.0047396 1 0.052986 -0.92114 0.3856 0 255 0
0.068908 -0.0041086 -0.0044035 1 0.030509 0.18649 0.98198 0 255 0
0.069708 -0.0065986 -0.0039806 1 0.054917 0.83619 -0.54568 0 255 0
0.072388 -0.0052587 -0.0065731 1 0.37558 0.2938 -0.87899 0 255 0
0.072928 -0.0042187 -0.0056681 1 0.010606 -0.007686 -0.99991 0 255 0
0.069438 -0.0058586 -0.005498 1 -0.028721 -0.55132 0.8338 0 255 0
0.071358 -0.0035787 -0.0053109 1 0.061637 0.50636 -0.86012 0 255 0
0.069458 -0.0030086 -0.0061673 1 0.069452 0.68737 -0.72298 0 255 0
0.068308 -0.0068686 -0.0033909 1 0.066002 -0.56948 -0.81935 0 255 0
0.075538 -0.0048587 -0.0076399 1 0.071289 0.69913 -0.71144 0 255 0
0.078118 -0.0030187 -0.0083804 1 0.124 0.043059 -0.99135 0 255 0
0.075258 -0.0056987 -0.0060861 1 -0.010443 -0.0040462 -0.99994 0 255 0
0.077338 -0.0063687 -0.0075728 1 0.063804 -0.044064 -0.99699 0 255 0
0.076048 -0.0029087 -0.0068801 1 0.2512 0.51734 -0.81808 0 255 0
0.074358 -0.0037687 -0.00623 1 0.031867 0.88543 0.46367 0 255 0
0.076738 -0.0065187 -0.0061413 1 0.070242 0.83531 -0.54528 0 255 0
0.075138 -0.0023887 -0.0079241 1 -0.13523 0.56373 0.81482 0 255 0
0.077558 -0.0046387 -0.0080286 1 0.033715 -0.24439 0.96909 0 255 0
0.073818 -0.0048387 -0.0071113 1 0.49612 0.18578 0.84814 0 255 0
0.077688 -0.0025287 -0.0070569 1 -0.40807 -0.51192 -0.75592 0 255 0
0.076548 -0.0048087 -0.0065581 1 0.84329 0.17496 -0.50819 0 255 0
0.073618 -0.0056787 -0.0055623 1 0.064934 -0.50214 -0.86235 0 255 0
0.079468 -0.0025387 -0.0071915 1 0.057467 0.99834 -0.0039263 0 255 0
0.080838 -0.0060287 -0.0079366 1 0.30029 -0.58506 -0.75334 0 255 0
0.083108 -0.0036787 -0.0073692 1 0.21087 0.25733 -0.94303 0 255 0
0.081978 -0.0057087 -0.0068139 1 0.16219 -0.98614 0.034999 0 255 0
0.081808 -0.0035287 -0.0085816 1 -0.3985 0.074304 0.91415 0 255 0
0.078568 -0.0050887 -0.0066669 1 -0.57302 0.02016 -0.81929 0 255 0
0.079988 -0.0035087 -0.0084615 1 0.064706 -0.83854 -0.54098 0 255 0
0.078318 -0.0067287 -0.0062276 1 -0.44806 0.27936 0.84924 0 255 0
0.079988 -0.0063487 -0.0064734 1 -0.37569 -0.39336 0.83912 0 255 0
0.080398 -0.0044987 -0.0069813 1 0.7028 -0.0053841 -0.71137 0 255 0
0.080998 -0.0025487 -0.0073086 1 -0.42486 -0.013765 0.90516 0 255 0
0.082698 -0.0055587 -0.0082039 1 -0.31712 -0.62629 0.71218 0 255 0
0.078818 -0.0061287 -0.0077512 1 0.012059 -0.0082652 -0.99989 0 255 0
0.079288 -0.0047887 -0.0081284 1 -0.5777 -0.12194 0.80709 0 255 0
0.083348 -0.0072287 -0.0065505 1 -0.27364 0.0011709 0.96183 0 255 0
0.085328 -0.0033187 -0.0088343 1 0.063007 0.062063 -0.99608 0 255 0
0.085608 -0.0055387 -0.0084389 1 0.056782 0.94152 0.33214 0 255 0
0.085918 -0.0071787 -0.0080244 1 0.062937 0.99505 -0.076943 0 255 0
0.087138 -0.0040687 -0.0087052 1 0.10098 -0.24976 -0.96303 0 255 0
0.085878 -0.0060287 -0.0070251 1 0.14001 0.64626 -0.75016 0 255 0
0.087428 -0.0063487 -0.0080832 1 0.078278 0.4325 -0.89823 0 255 0
0.087608 -0.0044987 -0.0072707 1 0.054193 0.30068 -0.95218 0 255 0
0.086698 -0.0033287 -0.0075121 1 0.076628 0.052857 0.99566 0 255 0
0.083568 -0.0054887 -0.0070131 1 -0.012046 0.0082923 0.99989 0 255 0
0.084108 -0.0041887 -0.0086625 1 -0.20493 0.49845 0.84235 0 255 0
0.085278 -0.0039887 -0.0075077 1 -0.0090329 -0.12847 -0.99167 0 255 0
0.090708 -0.0048887 -0.0081172 1 0.42475 0.38327 -0.82018 0 255 0
0.088298 -0.0024087 -0.0087213 1 -0.11137 -0.048807 0.99258 0 255 0
0.089528 -0.0047487 -0.0070015 1 0.59208 -0.078675 -0.80203 0 255 0
0.088878 -0.0048787 -0.0083275 1 0.12452 -0.078549 -0.9891 0 255 0
0.092038 -0.0049387 -0.0066868 1 -0.25316 -0.45298 0.85482 0 255 0
0.092858 -0.0062787 -0.0074854 1 0.043288 0.53803 -0.84181 0 255 0
0.089808 -0.0029887 -0.0084756 1 0.05576 0.8399 0.53988 0 255 0
0.089088 -0.0033487 -0.007234 1 0.05139 -0.99151 0.11943 0 255 0
0.090568 -0.0029487 -0.0071026 1 0.31672 -0.51907 -0.79388 0 255 0
0.092718 -0.0038487 -0.0080266 1 -0.29409 -0.28198 -0.91324 0 255 0
0.092318 -0.0025887 -0.0069346 1 0.056871 0.29248 -0.95458 0 255 0
0.089258 -0.0065887 -0.0078095 1 -0.30448 0.32894 0.89392 0 255 0
0.091418 -0.0063287 -0.0063626 1 -0.37725 0.15934 -0.9123 0 255 0
0.097688 -0.0043787 -0.0071845 1 0.037541 0.98867 0.14533 0 255 0
0.094248 -0.0036187 -0.0078566 1 0.07698 -0.9804 -0.18137 0 255 0
0.096298 -0.0053987 -0.0073366 1 0.013434 0.062699 -0.99794 0 255 0
0.095998 -0.0032187 -0.006447 1 -0.4022 0.84698 -0.34766 0 255 0
0.094728 -0.0061187 -0.0060787 1 -0.012073 0.0082609 0.99989 0 255 0
0.097148 -0.0028887 -0.0074975 1 0.068368 0.87496 -0.47935 0 255 0
0.094798 -0.0051187 -0.0075855 1 0.034815 0.069354 0.99698 0 255 0
0.093408 -0.0054387 -0.0064051 1 -0.33872 -0.47368 0.81296 0 255 0
0.097198 -0.0069687 -0.0066635 1 -0.012064 0.008253 0.99989 0 255 0
0.097748 -0.0061487 -0.0054863 1 -0.065194 -0.22254 0.97274 0 255 0
0.095528 -0.0026687 -0.0077899 1 0.065437 0.71195 -0.69918 0 255 0
0.099558 -0.0070587 -0.0047202 1 -0.74566 0.3364 0.57518 0 255 0
0.099008 -0.0040287 -0.005577 1 0.046834 0.29718 0.95367 0 255 0
0.099428 -0.0057687 -0.0063913 1 0.059335 0.18048 -0.98179 0 255 0
0.101 -0.0045687 -0.0061925 1 -0.16418 -0.60937 0.7757 0 255 0
0.10113 -0.0064287 -0.005708 1 -0.0030198 0.030459 -0.99953 0 255 0
0.099578 -0.0024387 -0.0055808 1 -0.2234 -0.29505 0.929 0 255 0
0.10011 -0.0053587 -0.0050793 1 -0.30051 0.53575 -0.78909 0 255 0
0.10266 -0.0025887 -0.0059131 1 0.055937 0.5937 -0.80274 0 255 0
0.10282 -0.0050487 -0.0056077 1 0.29024 0.57631 -0.76396 0 255 0
0.1014 -0.0070187 -0.0042254 1 0.036662 -0.13261 0.99049 0 255 0
0.099168 -0.0030487 -0.0068895 1 0.052832 0.82229 -0.56662 0 255 0
0.101 -0.0035787 -0.0050587 1 0.054568 -0.99399 0.094953 0 255 0
0.10298 -0.0059087 -0.0041281 1 0.061881 0.90012 0.43122 0 255 0
0.10245 -0.0038787 -0.0046186 1 0.039759 0.81319 0.58064 0 255 0
0.10093 -0.0028687 -0.0063929 1 -0.093924 0.39441 -0.91412 0 255 0
0.1016 -0.0055687 -0.0046062 1 0.053321 -0.88803 -0.45668 0 255 0
0.10442 -0.0061487 -0.0036608 1 0.064669 0.22878 -0.97133 0 255 0
0.10571 -0.0032087 -0.0049511 1 0.025997 -0.090507 0.99556 0 255 0
0.10529 -0.0056787 -0.0047546 1 -0.012077 0.0082649 0.99989 0 255 0
0.1065 -0.0069587 -0.0040278 1 -0.79974 -0.59522 -0.078345 0 255 0
0.10741 -0.0055887 -0.0041825 1 -0.28781 0.58798 0.75594 0 255 0
0.10609 -0.0056787 -0.0033462 1 0.01518 -0.62361 0.78159 0 255 0
0.10725 -0.0036887 -0.0044492 1 -0.012057 0.0082609 0.99989 0 255 0
0.10754 -0.0043187 -0.0031251 1 0.029569 -0.6507 0.75876 0 255 0
0.10503 -0.0044887 -0.0038242 1 0.043806 -0.31502 0.94807 0 255 0
0.10716 -0.0068987 -0.0026871 1 0.30158 -0.58181 -0.75534 0 255 0
0.10704 -0.0023887 -0.0034723 1 -0.01207 0.0082439 0.99989 0 255 0
0.10425 -0.0037387 -0.0053262 1 -0.10387 0.05032 -0.99332 0 255 0
0.10349 -0.0028487 -0.0044318 1 0.065898 -0.86324 -0.50048 0 255 0
0.11242 -0.0042787 -0.0010025 1 0.14777 -0.9859 0.078518 0 255 0
0.11078 -0.0069287 -0.0023281 1 -0.46091 -0.34102 0.81931 0 255 0
0.1127 -0.0071387 -0.00025905 1 0.050495 0.94041 0.33627 0 255 0
0.1089 -0.0060487 -0.0034301 1 -0.56517 -0.086346 0.82044 0 255 0
0.11249 -0.0064187 -0.001736 1 -0.46803 0.39356 0.79124 0 255 0
0.11042 -0.0047187 -0.0018245 1 -0.012051 0.0081866 0.99989 0 255 0
0.11197 -0.0051087 -0.0022732 1 0.31207 -0.39815 0.8626 0 255 0
0.10928 -0.0033587 -0.0024723 1 0.033023 -0.33591 0.94131 0 255 0
0.10955 -0.0044687 -0.0034286 1 0.025817 0.21192 0.97695 0 255 0
0.11129 -0.0068887 -0.00094145 1 0.044789 -0.8752 0.48168 0 255 0
0.11109 -0.0036887 -0.0028221 1 -0.6188 0.54492 -0.56581 0 255 0
0.11156 -0.0029287 -0.0015257 1 -0.49935 0.29719 0.81384 0 255 0
0.10939 -0.0062087 -0.0019697 1 -0.11924 -0.17738 0.97689 0 255 0
0.11021 -0.0025087 -0.0033512 1 0.12969 -0.061702 -0.98963 0 255 0
0.11648 -0.0063087 -1.936e-05 1 0.012046 -0.0082392 -0.99989 0 255 0
0.11746 -0.0052987 0.00131 1 0.057462 -0.62126 -0.78149 0 255 0
0.11803 -0.0069487 0.00086234 1 0.033482 -0.23303 0.97189 0 255 0
0.11451 -0.0030987 -0.00022297 1 0.058209 0.28234 -0.95755 0 255 0
0.11806 -0.0026187 0.00017303 1 0.061235 -0.76149 -0.64528 0 255 0
0.11411 -0.0040387 -0.001435 1 0.026527 0.9924 0.12013 0 255 0
0.11628 -0.0031287 0.00055493 1 0.48777 0.27743 -0.82772 0 255 0
0.11491 -0.0054787 -0.00091656 1 0.26169 -0.27907 -0.92393 0 255 0
0.11414 -0.0070287 -0.00081925 1 0.063868 0.39471 -0.91658 0 255 0
0.11668 -0.0043887 -0.00024587 1 -0.26446 0.16283 -0.95055 0 255 0
0.11352 -0.0053487 -0.00040067 1 0.29297 -0.14669 0.9448 0 255 0
0.11507 -0.0061987 0.00045794 1 0.10247 0.32524 -0.94006 0 255 0
0.1201 -0.0046487 0.0014179 1 0.053158 0.97639 -0.20936 0 255 0
0.12099 -0.0023987 0.0016829 1 -0.01206 0.0082518 0.99989 0 255 0
0.12176 -0.0026587 0.0032669 1 -0.96092 0.19913 0.19229 0 255 0
0.12096 -0.0047087 0.0030399 1 0.062243 0.45836 -0.88658 0 255 0
0.12285 -0.0041387 0.0040719 1 0.076499 0.72288 -0.68672 0 255 0
0.12127 -0.0065687 0.0035649 1 0.35564 0.36381 -0.86091 0 255 0
0.11945 -0.0067987 0.0025989 1 -0.39634 -0.46417 0.79212 0 255 0
0.1223 -0.0039687 0.0026479 1 0.52419 -0.0045553 0.85159 0 255 0
0.11907 -0.0056487 0.00096164 1 0.051157 0.51419 -0.85615 0 255 0
0.12101 -0.0058887 0.0021049 1 0.047448 -0.95846 -0.28124 0 255 0
0.11858 -0.0039387 0.00055103 1 0.059663 -0.62515 -0.77822 0 255 0
0.12729 -0.0040687 0.0056139 1 0.076108 0.07214 0.99449 0 255 0
0.12685 -0.0072487 0.0059749 1 -0.49838 -0.18295 0.84744 0 255 0
0.12792 -0.0040187 0.0069959 1 0.054259 -0.99715 0.052395 0 255 0
0.12462 -0.0046687 0.0051569 1 0.055298 0.79545 -0.60349 0 255 0
0.12799 -0.0071887 0.0076299 1 0.068907 0.9752 -0.21031 0 255 0
0.12606 -0.0026387 0.0057559 1 -0.1736 0.63748 -0.75066 0 255 0
0.12455 -0.0033687 0.0039059 1 0.37468 -0.45455 -0.80808 0 255 0
0.12513 -0.0068187 0.0048209 1 0.058388 -0.67314 -0.7372 0 255 0
0.12661 -0.0054787 0.0064099 1 0.59902 0.044471 -0.7995 0 255 0
0.12353 -0.0059287 0.0036059 1 0.29089 0.08827 0.95268 0 255 0
0.12582 -0.0036387 0.0046929 1 -0.094493 -0.29388 0.95116 0 255 0
0.12609 -0.0050787 0.0050209 1 0.047386 0.72928 0.68257 0 255 0
0.13188 -0.0035987 0.0083849 1 0.056682 -0.98186 0.18095 0 255 0
0.13003 -0.0066387 0.0086149 1 -0.17054 -0.74622 0.64348 0 255 0
0.12867 -0.0054287 0.0065909 1 0.1956 0.83402 -0.51589 0 255 0
0.13008 -0.0055787 0.0074469 1 0.065597 -0.66961 -0.73981 0 255 0
0.12934 -0.0038287 0.0077999 1 0.029855 0.49608 0.86776 0 255 0
0.13289 -0.0047787 0.010253 1 0.049447 0.87142 -0.48803 0 255 0
0.13143 -0.0050487 0.0082329 1 0.042324 0.63838 0.76856 0 255 0
0.13169 -0.0071287 0.0088849 1 0.34215 -0.45176 -0.82392 0 255 0
0.13278 -0.0024687 0.0089069 1 -0.078432 -0.99199 0.099063 0 255 0
0.13194 -0.0058987 0.0097049 1 0.35339 -0.29996 -0.88608 0 255 0
0.13456 -0.0067087 0.011788 1 -0.27344 0.94872 0.15863 0 255 0
0.13674 -0.0025887 0.012757 1 -0.93503 -0.17405 0.30891 0 255 0
0.13531 -0.0045587 0.011023 1 0.014561 0.95453 -0.29777 0 255 0
0.1339 -0.0038387 0.010863 1 -0.28176 0.38701 -0.87797 0 255 0
0.13642 -0.0061787 0.012046 1 0.035676 0.35132 0.93558 0 255 0
0.13603 -0.0039787 0.012419 1 0.042464 0.6516 0.75738 0 255 0
0.1372 -0.0053487 0.013357 1 0.05478 -0.63208 -0.77296 0 255 0
0.13627 -0.0071587 0.013169 1 -0.37082 0.25095 0.89416 0 255 0
0.13383 -0.0063387 0.010162 1 0.29908 0.57175 -0.76397 0 255 0
0.13794 -0.0034087 0.013064 1 -0.42331 -0.44074 0.79156 0 255 0
0.13524 -0.0029487 0.010775 1 -0.41194 -0.31204 0.85612 0 255 0
0.061248 0.0016914 -0.00063968 1 0.2474 0.29706 -0.92225 0 255 0
0.062058 -0.00078862 -0.0025077 1 0.033309 0.9983 0.047824 0 255 0
0.061658 0.00089138 -0.0022746 1 0.04707 -0.98212 -0.18226 0 255 0
0.060518 3.1386e-05 -0.0016693 1 -0.03728 0.65539 0.75437 0 255 0
0.062728 -0.0018586 -0.0014955 1 0.46592 -0.09434 0.87979 0 255 0
0.062218 0.0022314 -0.0025045 1 -0.57877 -0.69597 0.42503 0 255 0
0.061278 -0.0022486 -0.00056147 1 0.057961 -0.9957 0.07225 0 255 0
0.059918 -0.0019386 -0.0012042 1 0.052513 -0.13994 -0.98877 0 255 0
0.060268 -0.00054861 -0.00015198 1 0.01204 -0.008243 -0.99989 0 255 0
0.062978 0.00048138 -0.0030722 1 0.012046 -0.0082605 -0.99989 0 255 0
0.061638 -0.00079862 -0.00090968 1 -0.32229 -0.23364 -0.91736 0 255 0
0.063968 -0.0014786 -0.0022663 1 -0.49902 0.19925 0.84337 0 255 0
0.064868 0.00032137 -0.0028821 1 -0.37112 -0.47595 0.79733 0 255 0
0.065338 0.00054137 -0.0044533 1 -0.14625 0.031523 0.98875 0 255 0
0.067788 0.0017014 -0.0044545 1 0.011399 0.99993 -0.00068738 0 255 0
0.063598 0.0016614 -0.00205 1 0.067953 -0.94916 -0.30737 0 255 0
0.066028 -0.0013186 -0.0048055 1 0.050445 0.92237 -0.38301 0 255 0
0.067168 9.1362e-05 -0.0055471 1 0.056337 0.99638 -0.063699 0 255 0
0.066888 -0.0022286 -0.0039703 1 0.64856 0.044697 -0.75985 0 255 0
0.067818 -0.00073863 -0.0045207 1 0.051118 -0.40531 -0.91275 0 255 0
0.068098 0.0024114 -0.0058606 1 -0.53923 -0.59321 -0.59778 0 255 0
0.064268 -0.00067863 -0.0038136 1 -0.25228 -0.2502 0.93475 0 255 0
0.065638 0.0020414 -0.0032541 1 0.043288 -0.63069 0.77482 0 255 0
0.065748 -0.0012286 -0.0033549 1 0.057643 -0.60674 0.79281 0 255 0
0.064808 -0.0021486 -0.0040355 1 -0.012058 0.0082433 0.99989 0 255 0
0.066328 0.0020014 -0.0049567 1 -0.01204 0.0082596 0.99989 0 255 0
0.066788 0.00033137 -0.0040347 1 0.0039395 -0.51093 0.85961 0 255 0
0.064078 0.0016414 -0.0036557 1 0.48613 -0.28027 -0.82772 0 255 0
0.069928 0.0017013 -0.0064486 1 0.050408 0.99862 -0.014666 0 255 0
0.072328 -0.00010865 -0.0072694 1 -0.41627 0.74086 -0.52711 0 255 0
0.070858 -0.0019686 -0.0053579 1 0.035287 0.0064906 0.99936 0 255 0
0.072478 0.0016413 -0.0058952 1 0.012074 -0.0082539 -0.99989 0 255 0
0.071818 -0.00083864 -0.0057434 1 0.12041 0.45597 0.88181 0 255 0
0.069238 0.00012136 -0.0050009 1 0.026485 -0.7458 0.66564 0 255 0
0.070108 -0.00029864 -0.0065962 1 0.58306 0.014206 -0.8123 0 255 0
0.071658 -0.0020687 -0.0069166 1 -0.4288 -0.87155 0.23777 0 255 0
0.068398 -0.0010086 -0.006033 1 0.043024 0.97295 -0.22697 0 255 0
0.071128 0.0010013 -0.005523 1 -0.44707 0.89423 0.02169 0 255 0
0.072888 0.0021313 -0.0072959 1 0.040652 0.50441 0.86251 0 255 0
0.068498 0.00091136 -0.0060739 1 0.17781 -0.19267 -0.96502 0 255 0
0.071408 0.0022113 -0.0068516 1 -0.40569 0.42382 0.80981 0 255 0
0.077248 -0.00046866 -0.0085494 1 0.01207 -0.0082674 -0.99989 0 255 0
0.078248 -0.0010187 -0.0072341 1 0.061532 0.22146 -0.97323 0 255 0
0.077348 0.00064135 -0.0071982 1 0.13141 0.025403 -0.991 0 255 0
0.073988 -0.00012866 -0.0077616 1 -0.31272 -0.46482 0.82834 0 255 0
0.075718 0.00062134 -0.0082316 1 0.035001 0.057329 0.99774 0 255 0
0.074938 0.00094135 -0.0066979 1 -0.45477 -0.36494 0.8124 0 255 0
0.076948 -0.0021087 -0.0083831 1 0.16516 0.79218 -0.58752 0 255 0
0.077168 0.0014913 -0.0084628 1 0.031054 0.0019049 0.99952 0 255 0
0.077908 0.0020913 -0.0071337 1 0.048703 0.82483 0.56328 0 255 0
0.074858 -0.0017787 -0.0066027 1 0.031005 0.02106 0.9993 0 255 0
0.076168 -0.00091865 -0.0070738 1 0.5188 0.072369 -0.85183 0 255 0
0.074818 0.0021413 -0.007866 1 0.012053 -0.0082518 -0.99989 0 255 0
0.073498 0.00030135 -0.0062963 1 0.0032987 0.99976 0.02147 0 255 0
0.073618 -0.0021387 -0.0074934 1 0.036806 0.66796 0.74329 0 255 0
0.073338 -0.0014587 -0.0061616 1 -0.23026 -0.40733 0.88378 0 255 0
0.080448 0.0022013 -0.0073196 1 0.30339 0.060354 -0.95095 0 255 0
0.079858 -0.00058866 -0.0073959 1 -0.45772 -0.36846 0.80915 0 255 0
0.081948 -0.0012687 -0.0074951 1 0.087827 0.99504 -0.046756 0 255 0
0.080728 -0.0015487 -0.008685 1 -0.19355 0.57681 -0.79362 0 255 0
0.081208 0.00050134 -0.0075043 1 0.0362 -0.17849 0.98328 0 255 0
0.078958 0.0015213 -0.0085801 1 0.53063 -0.68885 -0.49389 0 255 0
0.080078 0.00041133 -0.0087366 1 0.048773 -0.99858 0.021216 0 255 0
0.082828 0.0019213 -0.007522 1 -0.011936 0.0084396 0.99989 0 255 0
0.081448 0.0015513 -0.008744 1 0.075436 0.91496 -0.39643 0 255 0
0.082328 -0.0021487 -0.0087389 1 0.30517 0.3569 0.88289 0 255 0
0.078948 0.00068135 -0.0073176 1 0.3271 0.24184 0.91352 0 255 0
0.082958 0.00022133 -0.0089429 1 -0.012062 0.0082647 0.99989 0 255 0
0.078878 -0.00075867 -0.0086316 1 0.050724 0.39443 -0.91753 0 255 0
0.081498 -2.8668e-05 -0.0088641 1 -0.35173 -0.87706 -0.32718 0 255 0
0.088108 0.00083133 -0.007595 1 -0.25378 0.27843 0.92632 0 255 0
0.084998 0.0021113 -0.0089393 1 -0.4821 0.12555 -0.86707 0 255 0
0.085978 0.00055133 -0.0078638 1 0.18505 0.43602 -0.88071 0 255 0
0.085658 -0.00039868 -0.0091166 1 0.64036 0.023745 -0.76771 0 255 0
0.084348 0.0012513 -0.007689 1 -0.04339 -0.80641 -0.58976 0 255 0
0.083698 -0.00053866 -0.0076934 1 -0.011919 0.0083454 0.99989 0 255 0
0.086948 -0.00083867 -0.0077256 1 0.039434 0.35501 0.93403 0 255 0
0.086498 0.0023713 -0.008974 1 0.24895 -0.78607 -0.56578 0 255 0
0.083458 0.0023813 -0.0088164 1 0.048538 -0.04888 0.99762 0 255 0
0.084148 -0.0023087 -0.0075703 1 0.066501 -0.2537 -0.96499 0 255 0
0.084878 -0.0018487 -0.0089349 1 0.38823 0.1985 -0.89993 0 255 0
0.084638 0.00065132 -0.0090233 1 0.052775 -0.99811 -0.031335 0 255 0
0.087448 0.00084132 -0.00898 1 0.069937 0.99166 0.10828 0 255 0
0.085318 -0.00098866 -0.0077773 1 0.063598 0.20508 -0.97668 0 255 0
0.086858 -0.0017187 -0.0089696 1 0.04873 -0.96582 0.25457 0 255 0
0.087948 -0.00058868 -0.0089417 1 0.070714 0.9677 0.24197 0 255 0
0.088958 -0.00074867 -0.0075023 1 0.50124 0.129 -0.85564 0 255 0
0.090868 0.0010213 -0.0085377 1 -0.012059 0.0082369 0.99989 0 255 0
0.093028 -0.00076868 -0.0082868 1 -0.019939 -0.40471 0.91423 0 255 0
0.092458 0.00087132 -0.0083514 1 0.012061 -0.0082471 -0.99989 0 255 0
0.089758 -0.0015287 -0.0086236 1 -0.27214 -0.026417 0.9619 0 255 0
0.091848 0.0015013 -0.0071082 1 0.048727 0.9209 0.38674 0 255 0
0.090268 0.0016813 -0.0072766 1 0.012063 -0.0082404 -0.99989 0 255 0
0.089858 0.0023313 -0.0085573 1 -0.84189 -0.48406 0.23853 0 255 0
0.091288 -0.0014087 -0.0071687 1 -0.4499 -0.39702 0.79998 0 255 0
0.091268 -0.00068867 -0.0085158 1 0.10589 0.49064 -0.86491 0 255 0
0.090258 -6.8673e-05 -0.0074174 1 0.012067 -0.008261 -0.99989 0 255 0
0.088318 0.0020513 -0.0087734 1 0.03272 -0.93016 0.3657 0 255 0
0.091478 -0.0023187 -0.0083314 1 0.050555 0.94848 0.31278 0 255 0
0.089528 0.00043133 -0.0087538 1 0.41303 -0.39184 -0.82212 0 255 0
0.091968 -5.8675e-05 -0.0072212 1 -0.9156 0.36648 0.16544 0 255 0
0.094898 -0.0011987 -0.0080113 1 -0.66792 -0.016373 -0.74405 0 255 0
0.094928 -9.8678e-05 -0.0068752 1 0.038825 0.19584 0.97987 0 255 0
0.094588 0.00088132 -0.0080835 1 -0.65469 -0.75578 -0.013587 0 255 0
0.097038 0.0025913 -0.0075931 1 -0.51027 0.011104 -0.85994 0 255 0
0.097388 -0.00034868 -0.0064202 1 -0.26099 -0.59191 0.76258 0 255 0
0.096488 0.0012313 -0.0078172 1 0.04947 0.19701 -0.97915 0 255 0
0.097998 0.00067132 -0.0074828 1 0.05533 -0.19252 -0.97973 0 255 0
0.096348 -0.0013287 -0.0078161 1 -0.012067 0.0082468 0.99989 0 255 0
0.095028 0.0015813 -0.0067356 1 0.034445 -0.30025 0.95324 0 255 0
0.093338 0.00085133 -0.0069903 1 0.040965 -0.79318 -0.60761 0 255 0
0.093998 -0.0022087 -0.0067783 1 0.033771 0.97905 0.20081 0 255 0
0.097548 -0.0019187 -0.0062115 1 0.07696 -0.5199 -0.85075 0 255 0
0.093358 0.0021613 -0.0081334 1 0.18272 -0.56754 -0.80281 0 255 0
0.097198 0.0013613 -0.0063823 1 0.050361 -0.99871 -0.0061353 0 255 0
0.098978 -0.00057868 -0.005946 1 -0.88926 -0.068124 -0.4523 0 255 0
0.10294 0.00097132 -0.0047952 1 -0.091443 0.29331 -0.95163 0 255 0
0.10103 0.0023613 -0.0064458 1 0.050881 -0.76242 0.64508 0 255 0
0.099388 0.00087132 -0.0070564 1 0.063669 0.062162 -0.99603 0 255 0
0.10084 0.00058131 -0.0066593 1 0.053678 0.95093 0.30471 0 255 0
0.10213 -0.0011387 -0.0062205 1 0.046365 -0.79756 0.60146 0 255 0
0.10051 -0.00046868 -0.0055248 1 -0.15999 0.053103 0.98569 0 255 0
0.10285 -0.0015187 -0.0047512 1 0.045408 -0.61218 -0.78942 0 255 0
0.10051 0.0014213 -0.005441 1 0.055606 0.67778 0.73316 0 255 0
0.10007 -0.0010187 -0.0068387 1 0.052571 0.93579 0.34863 0 255 0
0.1014 -0.0021687 -0.0050953 1 -0.012071 0.0082541 0.99989 0 255 0
0.10231 0.00093131 -0.0061964 1 -0.073615 -0.1075 0.99148 0 255 0
0.098568 0.0023013 -0.0071719 1 0.48584 0.044196 -0.87293 0 255 0
0.10395 0.00031131 -0.0057719 1 0.071288 0.478 -0.87546 0 255 0
0.10567 -0.0014687 -0.0039579 1 -0.11398 0.75898 -0.64106 0 255 0
0.10678 0.0012013 -0.0048639 1 0.04093 -0.27858 0.95954 0 255 0
0.1044 0.0015813 -0.0043284 1 0.040382 0.43558 0.89924 0 255 0
0.10585 0.0025013 -0.0038353 1 0.056228 0.80825 -0.58615 0 255 0
0.10442 -0.0020487 -0.0054537 1 -0.78856 -0.59755 0.14526 0 255 0
0.10721 0.0019713 -0.0034983 1 -0.09245 0.79726 -0.59651 0 255 0
0.10437 0.0025513 -0.0054484 1 0.085052 0.67792 -0.7302 0 255 0
0.10801 -0.00056868 -0.0033349 1 0.15152 -0.27235 -0.95019 0 255 0
0.10667 0.00013132 -0.0038136 1 0.058062 0.32659 -0.94338 0 255 0
0.1071 -0.0011787 -0.0047556 1 0.056142 -0.041623 -0.99756 0 255 0
0.10464 -0.00042868 -0.0043587 1 0.04532 0.48299 0.87445 0 255 0
0.10538 0.00099131 -0.0052908 1 -0.61405 -0.40841 -0.67538 0 255 0
0.10975 -0.00057868 -0.0025748 1 0.38583 -0.28145 -0.87859 0 255 0
0.11071 -0.0016787 -0.0020371 1 -0.18016 0.084913 0.97997 0 255 0
0.10868 -0.0023587 -0.0040487 1 0.51677 0.26755 -0.81324 0 255 0
0.11037 0.0019113 -0.0033755 1 -0.012065 0.0082538 0.99989 0 255 0
0.11282 0.0018013 -0.0022947 1 0.050593 -0.37845 0.92424 0 255 0
0.11276 -0.0023187 -0.0022307 1 -0.054947 0.53556 0.84271 0 255 0
0.11217 -0.00055868 -0.0026929 1 0.012043 -0.0082619 -0.99989 0 255 0
0.11115 0.0012013 -0.0019189 1 -0.20779 -0.97009 0.12548 0 255 0
0.10983 0.00030132 -0.0037682 1 0.04758 0.81453 0.57817 0 255 0
0.10845 0.0014013 -0.0042808 1 -0.49769 -0.062763 -0.86508 0 255 0
0.109 0.0020113 -0.0027782 1 0.070166 0.45503 -0.88771 0 255 0
0.11369 4.1316e-05 -0.002073 1 0.39932 0.097554 -0.91161 0 255 0
0.11606 -0.00090868 0.00020912 1 0.054714 -0.84486 -0.53219 0 255 0
0.11817 1.1321e-05 0.0010291 1 -0.27395 0.88173 0.38407 0 255 0
0.11653 0.0012113 -0.00069329 1 0.46288 0.35289 -0.81314 0 255 0
0.11444 -7.868e-05 -0.00058878 1 0.012047 -0.0082579 -0.99989 0 255 0
0.11547 0.0024513 -0.0010504 1 0.043849 -0.37128 0.92748 0 255 0
0.1155 -0.0011587 -0.0011335 1 0.012078 -0.0082621 -0.99989 0 255 0
0.11739 -0.00023869 -0.00039048 1 -0.58786 -0.064526 0.80638 0 255 0
0.11401 0.0025513 -0.00054619 1 -0.012099 0.0083111 0.99989 0 255 0
0.11514 0.0013013 -0.00017509 1 0.089507 0.97713 -0.19288 0 255 0
0.11362 -0.0018687 -0.00074538 1 -0.86484 0.45045 -0.22171 0 255 0
0.1142 0.0016213 -0.0016943 1 0.32609 0.70304 -0.63198 0 255 0
0.12313 0.00021132 0.0037529 1 0.16917 0.58953 -0.78984 0 255 0
0.11923 -0.0022587 0.0017479 1 0.13201 -0.031955 0.99073 0 255 0
0.12215 -0.0010287 0.0032989 1 0.04153 0.53445 0.84418 0 255 0
0.12095 -0.00081868 0.0014705 1 0.17872 0.57273 -0.80003 0 255 0
0.1201 0.00052132 0.00091532 1 -0.35267 0.35431 0.86608 0 255 0
0.11859 0.0015213 0.00025711 1 -0.015274 0.46983 -0.88263 0 255 0
0.12126 0.00098132 0.0027509 1 0.044714 0.45141 0.8912 0 255 0
0.11987 0.0017113 0.0020169 1 0.061917 -0.97145 0.22903 0 255 0
0.11937 -0.0011187 0.00059072 1 0.047616 0.98725 -0.15187 0 255 0
0.12265 0.0014013 0.0025139 1 -0.75816 0.040528 0.65081 0 255 0
0.12477 -0.0022387 0.0049619 1 0.15717 0.98368 -0.087638 0 255 0
0.12331 -0.0021487 0.0030259 1 -0.2712 -0.58845 0.76169 0 255 0
0.12668 -0.00046867 0.0058599 1 -0.012072 0.0082219 0.99989 0 255 0
0.12621 0.00057132 0.0045339 1 -0.012046 0.0082266 0.99989 0 255 0
0.12672 0.0013813 0.0059499 1 -0.17564 0.57378 0.79996 0 255 0
0.12461 0.0014113 0.0036729 1 0.048499 -0.99798 -0.041088 0 255 0
0.12391 -0.0010287 0.0043199 1 0.012063 -0.0082529 -0.99989 0 255 0
0.12607 -0.0012587 0.0045599 1 0.057602 -0.95873 -0.27842 0 255 0
0.12467 0.00026132 0.0046479 1 -0.012061 0.0082296 0.99989 0 255 0
0.13217 0.00054133 0.0081839 1 -0.13753 0.65298 0.74479 0 255 0
0.131 -0.0017387 0.0075399 1 0.069362 0.91079 -0.40701 0 255 0
0.12898 0.0023013 0.0063439 1 0.03525 -0.67497 0.73701 0 255 0
0.13026 -0.00045867 0.0069479 1 0.031223 -0.32223 0.94615 0 255 0
0.13149 -0.00092867 0.0087679 1 0.054234 0.66944 -0.74088 0 255 0
0.12928 -0.0023587 0.0075929 1 -0.46687 -0.3328 0.81932 0 255 0
0.12858 -0.0022787 0.0061689 1 -0.084215 -0.039787 -0.99565 0 255 0
0.13059 0.0016713 0.0082199 1 0.37817 0.088697 -0.92148 0 255 0
0.13278 0.0018413 0.0097499 1 -0.01207 0.0082488 0.99989 0 255 0
0.12877 -3.8674e-05 0.0060129 1 0.07147 0.99653 -0.04269 0 255 0
0.12872 0.0010213 0.0070709 1 -0.48821 -0.6755 -0.55259 0 255 0
0.13631 -0.00055866 0.0122 1 0.077858 0.98097 -0.17789 0 255 0
0.13512 -0.0013887 0.010492 1 0.012046 -0.0082428 -0.99989 0 255 0
0.13691 0.00087134 0.011696 1 -0.012038 0.0082457 0.99989 0 255 0
0.13545 0.00029134 0.010565 1 0.24171 -0.41564 0.87682 0 255 0
0.13582 0.0018813 0.011939 1 0.054254 0.22017 -0.97395 0 255 0
0.13363 0.00062133 0.010236 1 -0.49571 0.050986 -0.86699 0 255 0
0.13351 -0.00075867 0.0092269 1 0.049439 -0.23814 -0.96997 0 255 0
0.138 0.0011814 0.013432 1 0.036294 -0.27766 0.95999 0 255 0
0.13386 -0.0023687 0.010652 1 0.012074 -0.0082556 -0.99989 0 255 0
0.13774 -0.0017086 0.013371 1 0.35695 -0.6847 -0.63543 0 255 0
0.13828 -0.00035866 0.012691 1 0.024156 -0.092447 0.99542 0 255 0
0.137 0.0020913 0.01281 1 0.049037 0.96517 0.25699 0 255 0
0.060468 0.0027414 -0.0014073 1 0.012079 -0.0082561 -0.99989 0 255 0
0.061958 0.0055614 -0.0015664 1 0.052981 -0.3761 -0.92506 0 255 0
0.062128 0.0032614 -0.00093009 1 -0.36274 -0.83247 0.41882 0 255 0
0.063048 0.0044014 -0.0025999 1 0.04757 0.41367 0.90918 0 255 0
0.060678 0.0036814 -2.2291e-05 1 0.027149 -0.056599 0.99803 0 255 0
0.061088 0.0042714 -0.001418 1 0.012069 -0.0082454 -0.99989 0 255 0
0.066528 0.0051414 -0.0032983 1 0.063041 0.019855 -0.99781 0 255 0
0.066168 0.0070114 -0.0025162 1 0.051708 -0.89846 -0.436 0 255 0
0.066298 0.0035314 -0.004723 1 0.37766 0.27246 0.88495 0 255 0
0.067058 0.0072414 -0.0042494 1 0.52931 -0.013382 -0.84832 0 255 0
0.064618 0.0050614 -0.0020947 1 0.036327 0.28756 0.95707 0 255 0
0.063698 0.0062614 -0.0019673 1 0.37848 -0.088374 -0.92138 0 255 0
0.067238 0.0052914 -0.0049719 1 -0.022311 -0.031299 -0.99926 0 255 0
0.064988 0.0056914 -0.0034408 1 0.053939 -0.16563 0.98471 0 255 0
0.063648 0.0030114 -0.0032274 1 0.41009 0.044769 -0.91095 0 255 0
0.064698 0.0041414 -0.0036578 1 0.04847 0.94902 0.31148 0 255 0
0.068678 0.0068914 -0.0035779 1 0.048847 0.12351 -0.99114 0 255 0
0.072868 0.0032413 -0.0058918 1 -0.012067 0.0082492 0.99989 0 255 0
0.069208 0.0055114 -0.0042425 1 0.11921 -0.20007 -0.9725 0 255 0
0.068318 0.0040414 -0.0042672 1 0.22998 0.42256 -0.87667 0 255 0
0.070748 0.0031914 -0.0052224 1 0.034384 0.40975 0.91155 0 255 0
0.072938 0.0066513 -0.005144 1 0.017007 0.72211 -0.69157 0 255 0
0.069598 0.0054114 -0.0057252 1 -0.012065 0.008238 0.99989 0 255 0
0.071688 0.0062113 -0.006171 1 0.012047 -0.0082505 -0.99989 0 255 0
0.070768 0.0051614 -0.004815 1 -0.076558 0.25487 -0.96394 0 255 0
0.071578 0.0043913 -0.0065525 1 0.036176 -0.49354 0.86897 0 255 0
0.069178 0.0034114 -0.0060147 1 0.063632 0.99651 -0.054083 0 255 0
0.073188 0.0064513 -0.0065911 1 0.062371 0.37018 -0.92687 0 255 0
0.071368 0.0065514 -0.0046343 1 0.060591 -0.35186 -0.93409 0 255 0
0.072468 0.0050513 -0.0053846 1 0.39206 -0.058813 0.91806 0 255 0
0.074888 0.0040313 -0.0076526 1 0.56621 -0.27777 -0.77604 0 255 0
0.073908 0.0050313 -0.0058472 1 0.054564 0.99499 0.083731 0 255 0
0.077548 0.0070113 -0.0061656 1 0.073309 -0.70719 -0.70321 0 255 0
0.076708 0.0043413 -0.0080655 1 0.04697 -0.54385 0.83786 0 255 0
0.073438 0.0035913 -0.0072929 1 0.059709 -0.42325 -0.90404 0 255 0
0.076478 0.0046613 -0.0066287 1 0.027968 -0.21793 0.97556 0 255 0
0.076558 0.0026913 -0.0069857 1 0.071859 -0.38993 -0.91804 0 255 0
0.074568 0.0072813 -0.0054827 1 -0.31114 -0.38113 -0.87059 0 255 0
0.077508 0.0030213 -0.0083718 1 -0.015074 -0.42682 0.90421 0 255 0
0.074308 0.0027013 -0.0063907 1 -0.34164 0.43827 0.83138 0 255 0
0.077518 0.0059713 -0.0077424 1 0.050607 -0.91751 0.39447 0 255 0
0.074448 0.0056313 -0.0071795 1 0.05464 0.85066 0.52287 0 255 0
0.075808 0.0066613 -0.0073841 1 -0.31354 0.32189 -0.89335 0 255 0
0.075548 0.0058113 -0.00621 1 -0.14395 0.87583 -0.46066 0 255 0
0.078968 0.0069313 -0.0076301 1 0.051432 -0.99414 -0.0951 0 255 0
0.081958 0.0067513 -0.0079099 1 -0.012047 0.0082531 0.99989 0 255 0
0.078338 0.0035013 -0.0070621 1 -0.017915 0.036298 -0.99918 0 255 0
0.082758 0.0038913 -0.0086531 1 -0.14935 -0.50374 -0.85084 0 255 0
0.080618 0.0058313 -0.0067206 1 -0.012037 0.0082768 0.99989 0 255 0
0.082118 0.0033213 -0.0073644 1 0.054999 0.68494 -0.72652 0 255 0
0.079598 0.0052613 -0.0080769 1 0.068051 0.619 -0.78244 0 255 0
0.082908 0.0063013 -0.006813 1 0.032024 0.68482 0.72801 0 255 0
0.080218 0.0030713 -0.0085497 1 0.061018 -0.08094 -0.99485 0 255 0
0.078928 0.0054313 -0.006664 1 0.019671 0.17699 0.98402 0 255 0
0.082838 0.0046713 -0.0071945 1 0.047972 0.38443 0.92191 0 255 0
0.080398 0.0041713 -0.0070951 1 0.06111 0.65089 -0.75671 0 255 0
0.081478 0.0050213 -0.0082826 1 0.064823 0.2131 -0.97488 0 255 0
0.078328 0.0044813 -0.0081618 1 0.045797 -0.83195 0.55296 0 255 0
0.086908 0.0059413 -0.0070032 1 0.030253 0.17919 0.98335 0 255 0
0.086438 0.0050513 -0.0085995 1 0.012054 -0.0082558 -0.99989 0 255 0
0.087388 0.0031713 -0.007486 1 0.051263 0.99868 0.0012593 0 255 0
0.084378 0.0041513 -0.0074551 1 0.055363 -0.97 0.23672 0 255 0
0.084878 0.0036213 -0.0088191 1 0.012057 -0.0082344 -0.99989 0 255 0
0.084178 0.0053913 -0.0084098 1 0.40937 0.10405 -0.90642 0 255 0
0.088218 0.0043813 -0.0072776 1 0.0404 0.60334 0.79646 0 255 0
0.088208 0.0036913 -0.0086518 1 0.28069 -0.10991 -0.95349 0 255 0
0.085418 0.0067013 -0.0069396 1 0.04963 0.94883 0.31185 0 255 0
0.083738 0.0069313 -0.0080089 1 0.012056 -0.0082313 -0.99989 0 255 0
0.086718 0.0073113 -0.0079749 1 0.38154 -0.2498 -0.88996 0 255 0
0.085498 0.0061713 -0.0083294 1 0.069541 -0.18904 -0.9795 0 255 0
0.085968 0.0036913 -0.0076076 1 0.049086 -0.39926 -0.91552 0 255 0
0.089128 0.0028513 -0.0073121 1 0.095065 -0.33169 0.93859 0 255 0
0.090128 0.0045113 -0.0070463 1 0.078539 -0.72442 -0.68487 0 255 0
0.089878 0.0070313 -0.0064123 1 0.030797 0.84415 0.53522 0 255 0
0.093228 0.0053813 -0.0064959 1 0.035136 -0.7724 0.63417 0 255 0
0.088818 0.0057813 -0.0081391 1 0.054117 -0.79562 -0.60337 0 255 0
0.091898 0.0055213 -0.007859 1 0.059313 -0.94002 -0.33591 0 255 0
0.092078 0.0063913 -0.0063516 1 -0.099358 -0.25187 0.96265 0 255 0
0.088358 0.0063013 -0.0067584 1 -0.14016 -0.38121 0.9138 0 255 0
0.091048 0.0072713 -0.0074961 1 0.048663 0.5214 -0.85192 0 255 0
0.091698 0.0027813 -0.0082904 1 0.051724 -0.91734 0.39473 0 255 0
0.092518 0.0041713 -0.0080748 1 0.036488 0.52593 0.84975 0 255 0
0.092158 0.0032313 -0.0069318 1 -0.012039 0.0082281 0.99989 0 255 0
0.089978 0.0039513 -0.0084095 1 -0.012053 0.0082443 0.99989 0 255 0
0.097238 0.0041613 -0.0073974 1 0.046116 0.94289 -0.32989 0 255 0
0.097168 0.0070913 -0.006721 1 0.038245 -0.2393 0.97019 0 255 0
0.094628 0.0040813 -0.0065765 1 -0.25969 -0.24443 0.93425 0 255 0
0.097438 0.0032913 -0.0061425 1 0.41032 0.075291 -0.90883 0 255 0
0.094348 0.0059413 -0.0074719 1 0.071293 -0.044186 -0.99648 0 255 0
0.094668 0.0028613 -0.0079119 1 -0.012068 0.0082475 0.99989 0 255 0
0.095718 0.0076013 -0.0056577 1 -0.51823 -0.77782 0.35558 0 255 0
0.097098 0.0055013 -0.0059218 1 0.039788 -0.035665 0.99857 0 255 0
0.096298 0.0052813 -0.0074235 1 -0.011732 -0.99975 -0.019063 0 255 0
0.095058 0.0062913 -0.0060702 1 0.082074 -0.98477 -0.15329 0 255 0
0.095968 0.0027513 -0.0065317 1 0.068191 0.57392 -0.81607 0 255 0
0.097788 0.0071313 -0.005276 1 -0.012007 0.0081729 0.99989 0 255 0
0.10279 0.0041913 -0.004551 1 -0.44109 0.87328 0.20693 0 255 0
0.10112 0.0068313 -0.0044572 1 -0.012056 0.0082386 0.99989 0 255 0
0.099418 0.0062013 -0.0050949 1 0.30071 -0.055804 0.95208 0 255 0
0.099388 0.0027213 -0.0056434 1 0.24395 0.24185 0.93915 0 255 0
0.10206 0.0054713 -0.0058026 1 0.062587 0.2426 -0.96811 0 255 0
0.10198 0.0035313 -0.0060641 1 0.053296 0.76931 0.63665 0 255 0
0.10265 0.0058813 -0.0043101 1 0.012065 -0.0082554 -0.99989 0 255 0
0.099488 0.0045313 -0.0067051 1 0.057334 -0.52512 0.84909 0 255 0
0.10218 0.0026813 -0.0048568 1 0.024894 -0.62549 0.77983 0 255 0
0.1006 0.0061813 -0.0060138 1 0.064568 0.37043 0.92661 0 255 0
0.098518 0.0063313 -0.0065575 1 0.055579 0.14178 -0.98834 0 255 0
0.10003 0.0044713 -0.005307 1 0.012053 -0.0082507 -0.99989 0 255 0
0.10811 0.0056013 -0.0040087 1 0.066219 0.63747 -0.76762 0 255 0
0.10385 0.0048113 -0.005403 1 0.061842 0.87057 -0.48815 0 255 0
0.10617 0.0070613 -0.0041946 1 0.012051 -0.0082342 -0.99989 0 255 0
0.107 0.0046113 -0.004498 1 0.15602 0.55424 0.8176 0 255 0
0.10564 0.0050913 -0.0036654 1 0.4997 -0.26363 -0.82511 0 255 0
0.10476 0.0036313 -0.0040455 1 0.065385 -0.42112 -0.90465 0 255 0
0.10718 0.0071813 -0.0027101 1 0.027015 -0.53728 0.84297 0 255 0
0.10395 0.0066613 -0.0037359 1 -0.011939 0.0082487 0.99989 0 255 0
0.10496 0.0057513 -0.0049059 1 0.045667 -0.91676 0.39681 0 255 0
0.10839 0.0035313 -0.0041037 1 0.048402 0.7032 0.70935 0 255 0
0.11165 0.0041013 -0.0025985 1 0.04517 0.044815 0.99797 0 255 0
0.11174 0.0063613 -0.0021926 1 -0.016462 -0.22855 -0.97339 0 255 0
0.11034 0.0067613 -0.0015086 1 0.03258 -0.59513 0.80297 0 255 0
0.11268 0.0064613 -0.0006031 1 0.044608 -0.92332 0.38144 0 255 0
0.11253 0.0029813 -0.0011479 1 0.23874 0.37456 -0.89594 0 255 0
0.1101 0.0056713 -0.0031218 1 0.029459 0.28406 0.95835 0 255 0
0.10886 0.0050213 -0.0025557 1 0.01207 -0.0082427 -0.99989 0 255 0
0.10887 0.0071113 -0.0020295 1 -0.012049 0.0082431 0.99989 0 255 0
0.1099 0.0036913 -0.0022276 1 0.044354 0.67093 0.74019 0 255 0
0.11134 0.0051213 -0.0014648 1 -0.27152 -0.072735 0.95968 0 255 0
0.11285 0.0049513 -0.0008261 1 0.12283 0.0196 0.99223 0 255 0
0.11428 0.0062213 -0.001128 1 0.012055 -0.0082606 -0.99989 0 255 0
0.11538 0.0043213 -0.0009133 1 0.046313 -0.0061613 0.99891 0 255 0
0.11701 0.0026913 -0.00033969 1 0.2747 0.19335 -0.94189 0 255 0
0.11788 0.0030413 0.0011814 1 -0.49962 0.10119 0.86031 0 255 0
0.1147 0.0068413 0.00037149 1 0.044929 -0.81252 0.58119 0 255 0
0.11733 0.0054813 0.0011743 1 0.055325 0.79731 0.60103 0 255 0
0.1162 0.0074913 9.019e-05 1 0.0319 -0.34123 0.93944 0 255 0
0.11425 0.0049813 -0.0002134 1 -0.012068 0.0082413 0.99989 0 255 0
0.11631 0.0057513 -0.0003604 1 -0.012056 0.0082573 0.99989 0 255 0
0.1173 0.0075813 0.0016959 1 -0.37428 0.4883 0.78834 0 255 0
0.11769 0.0044713 0.0001317 1 0.28211 -0.19582 0.93919 0 255 0
0.11624 0.0045513 0.0006113 1 -0.31167 -0.57387 -0.75732 0 255 0
0.11394 0.0040413 -0.0015828 1 -0.13833 -0.13977 0.98047 0 255 0
0.11761 0.0067813 0.00049179 1 -0.09121 -0.20976 0.97349 0 255 0
0.11836 0.0044913 0.0015277 1 0.073188 -0.30691 0.94892 0 255 0
0.12318 0.0028713 0.0029749 1 0.059963 0.45227 -0.88986 0 255 0
0.12009 0.0052713 0.0013893 1 0.19118 -0.55267 -0.81118 0 255 0
0.11879 0.0063013 0.0019449 1 0.10477 0.60442 -0.78975 0 255 0
0.122 0.0065413 0.0027369 1 0.061604 0.80084 -0.5957 0 255 0
0.11959 0.0035313 0.0009198 1 0.57954 0.060149 0.81272 0 255 0
0.12121 0.0028413 0.0029049 1 0.012059 -0.0082332 -0.99989 0 255 0
0.12025 0.0041913 0.0024839 1 0.029909 0.40632 0.91324 0 255 0
0.12019 0.0073213 0.0030399 1 0.048589 -0.70382 0.70871 0 255 0
0.12153 0.0048013 0.0032869 1 0.37054 -0.10103 0.92331 0 255 0
0.12323 0.0068913 0.0035649 1 0.5026 -0.1747 -0.84668 0 255 0
0.12557 0.0062013 0.0057659 1 0.019451 -0.28787 -0.95747 0 255 0
0.12712 0.0069213 0.0068599 1 -0.46189 -0.38589 -0.79859 0 255 0
0.12445 0.0045213 0.0049479 1 0.074788 0.33919 -0.93774 0 255 0
0.12699 0.0049813 0.0064629 1 -0.078945 -0.40282 0.91187 0 255 0
0.12369 0.0059613 0.0046509 1 -0.51388 0.77576 0.36624 0 255 0
0.12383 0.0044213 0.0035149 1 0.51749 0.56744 -0.64048 0 255 0
