ply
format ascii 1.0
comment author Paulo Abelha (p.abelha at abdn ac uk)
element vertex 1302
property float x
property float y
property float z
property int segm
property uchar red
property uchar green
property uchar blue
end_header
0.20766 -0.013798 0.13634 8 0 255 0
0.15301 -0.0057381 0.13695 8 0 255 0
0.18728 0.0010946 0.13762 8 0 255 0
0.067173 -0.0079105 0.13773 1 255 0 0
0.12119 0.0026979 0.13622 1 255 0 0
0.22801 -0.0032465 0.1373 8 0 255 0
0.17831 -0.019355 0.13763 8 0 255 0
-0.0093657 0.0046282 0.13862 1 255 0 0
0.099598 -0.006898 0.13545 1 255 0 0
0.20529 -0.0092185 0.13703 8 0 255 0
0.17473 -0.012149 0.13764 8 0 255 0
0.09683 0.0038001 0.13615 1 255 0 0
-0.011497 -0.011717 0.13789 1 255 0 0
0.20981 0.0075833 0.1376 8 0 255 0
0.092789 -0.0086202 0.13602 1 255 0 0
0.17547 -0.019955 0.13764 8 0 255 0
0.0057062 -0.0035591 0.13896 1 255 0 0
0.18123 -0.012081 0.13763 8 0 255 0
0.05013 -0.0046349 0.13841 1 255 0 0
0.023846 0.006157 0.13543 1 255 0 0
0.16221 0.0052986 0.13765 8 0 255 0
0.078456 -0.0061822 0.13508 1 255 0 0
0.040756 0.0040787 0.13508 1 255 0 0
0.077991 -0.0019308 0.13817 1 255 0 0
0.20242 -0.011746 0.13761 8 0 255 0
-0.010837 -0.00047505 0.13914 1 255 0 0
0.11386 0.0031522 0.1365 1 255 0 0
0.15015 0.00073589 0.13589 8 0 255 0
0.21761 -0.017015 0.13759 8 0 255 0
0.041797 -0.0016668 0.13858 1 255 0 0
0.1662 -0.01523 0.13765 8 0 255 0
0.10296 -0.0018395 0.13788 1 255 0 0
0.098263 0.0020824 0.13543 1 255 0 0
-0.012363 -0.0032477 0.13883 1 255 0 0
0.068646 0.0012649 0.13493 1 255 0 0
-0.012364 -0.0027146 0.13647 1 255 0 0
0.02276 -0.0013635 0.13879 1 255 0 0
0.21432 -0.004174 0.13759 8 0 255 0
0.18235 0.010933 0.13763 8 0 255 0
0.18053 0.0085229 0.1355 8 0 255 0
0.21663 -0.017935 0.13759 8 0 255 0
0.06646 0.0022144 0.13506 1 255 0 0
0.03782 0.006602 0.13621 1 255 0 0
0.01686 -0.0047286 0.13432 1 255 0 0
0.17039 -0.0076293 0.13764 8 0 255 0
0.19944 -0.015798 0.13585 8 0 255 0
0.059462 -0.0077044 0.13514 1 255 0 0
0.2163 0.0087578 0.13556 8 0 255 0
0.00054696 0.0041554 0.13856 1 255 0 0
0.051416 0.0032565 0.13506 1 255 0 0
0.050436 0.00075175 0.1347 1 255 0 0
0.0065685 -0.0086081 0.13843 1 255 0 0
0.19061 0.0078476 0.13762 8 0 255 0
0.038604 -0.0068414 0.13832 1 255 0 0
0.036258 -0.0059909 0.13844 1 255 0 0
0.20721 0.0052114 0.13558 8 0 255 0
0.1247 -0.0017212 0.13526 1 255 0 0
0.1902 0.010636 0.13737 8 0 255 0
0.17688 0.01316 0.1355 8 0 255 0
0.21561 0.00013116 0.13583 8 0 255 0
0.10602 -0.0010355 0.13511 1 255 0 0
0.11012 0.0015232 0.13744 1 255 0 0
0.20727 0.01291 0.13547 8 0 255 0
0.19372 -0.014344 0.13762 8 0 255 0
0.077518 -0.0047508 0.13808 1 255 0 0
0.18234 -0.0029485 0.13549 8 0 255 0
0.18864 0.0083259 0.13762 8 0 255 0
0.16394 -0.016961 0.13551 8 0 255 0
0.17221 0.0066872 0.13764 8 0 255 0
0.19988 0.0072503 0.13547 8 0 255 0
0.11731 -0.0033801 0.1352 1 255 0 0
0.01418 0.0022149 0.13446 1 255 0 0
0.15665 -0.0046291 0.13765 8 0 255 0
0.055714 0.0058896 0.13644 1 255 0 0
0.13596 0.0016856 0.13599 1 255 0 0
0.12784 -0.0017094 0.13759 1 255 0 0
0.14816 0.00074794 0.13698 8 0 255 0
0.1824 -0.0091764 0.13549 8 0 255 0
0.17177 0.003408 0.1355 8 0 255 0
0.1262 -0.003406 0.13528 1 255 0 0
0.12226 0.0017724 0.13574 1 255 0 0
0.16466 -0.00047689 0.13551 8 0 255 0
0.05409 -0.0015426 0.13843 1 255 0 0
0.019423 -0.0052587 0.13871 1 255 0 0
0.084863 -0.0054006 0.13504 1 255 0 0
0.026047 -0.0036711 0.13873 1 255 0 0
0.20099 -0.0010792 0.13547 8 0 255 0
0.18814 -0.0065112 0.13549 8 0 255 0
0.0020784 -0.0093785 0.13479 1 255 0 0
0.14602 0.00090537 0.13587 8 0 255 0
0.086653 -0.0072585 0.13537 1 255 0 0
0.20807 -0.0020216 0.1376 8 0 255 0
0.14219 -0.0055648 0.13568 1 255 0 0
0.20928 0.00083167 0.13581 8 0 255 0
0.15906 -0.013417 0.13765 8 0 255 0
0.20194 -0.0029672 0.13547 8 0 255 0
0.16618 0.0076378 0.13764 8 0 255 0
0.18241 -0.014136 0.1355 8 0 255 0
0.17907 -0.00076489 0.13763 8 0 255 0
0.20925 0.013104 0.13546 8 0 255 0
-0.0076649 -0.0088308 0.13459 1 255 0 0
0.01507 -0.0017537 0.13423 1 255 0 0
0.10856 0.0021693 0.13563 1 255 0 0
0.23444 0.0074523 0.13598 8 0 255 0
0.028137 -6.9428e-05 0.13868 1 255 0 0
-0.0036919 0.0072276 0.13787 1 255 0 0
0.11382 -0.0061172 0.13546 1 255 0 0
0.19036 -0.018773 0.13549 8 0 255 0
0.14304 0.0015319 0.1361 1 255 0 0
0.025992 0.0015665 0.13857 1 255 0 0
0.029868 -0.0071648 0.13471 1 255 0 0
0.17484 0.0095504 0.1355 8 0 255 0
0.1412 -0.0027454 0.13746 1 255 0 0
0.038281 0.005657 0.13554 1 255 0 0
0.15528 -0.0062763 0.13665 8 0 255 0
0.22481 -0.016868 0.13758 8 0 255 0
0.21445 -0.01084 0.13546 8 0 255 0
0.18582 0.0027062 0.13762 8 0 255 0
0.23431 -0.0026166 0.13544 8 0 255 0
0.043309 -0.0016976 0.1345 1 255 0 0
0.017607 0.0073059 0.1359 1 255 0 0
-0.0062143 -0.0053202 0.13901 1 255 0 0
0.1697 -0.014236 0.13551 8 0 255 0
0.083443 -0.00041977 0.13805 1 255 0 0
0.065032 -0.0079952 0.13528 1 255 0 0
0.07004 -0.0073464 0.13781 1 255 0 0
0.063694 -0.00083343 0.13472 1 255 0 0
0.11393 0.0020056 0.13724 1 255 0 0
0.15687 0.0026052 0.13552 8 0 255 0
0.16775 -0.021191 0.13732 8 0 255 0
0.075917 -0.0056562 0.13498 1 255 0 0
0.18431 0.00080613 0.13762 8 0 255 0
-0.0093758 0.0085448 0.13586 1 255 0 0
0.18986 0.01676 0.13571 8 0 255 0
0.21227 -0.010578 0.13546 8 0 255 0
0.094832 -0.0042781 0.13792 1 255 0 0
0.015099 0.0065365 0.1354 1 255 0 0
0.069846 -0.0017569 0.13475 1 255 0 0
0.013762 0.0027088 0.13862 1 255 0 0
0.18981 0.013535 0.13548 8 0 255 0
0.15793 0.0095765 0.13595 8 0 255 0
0.17896 -0.0029229 0.13763 8 0 255 0
0.096491 0.0017942 0.13536 1 255 0 0
0.23617 0.012268 0.13748 8 0 255 0
0.1974 0.0053645 0.13548 8 0 255 0
0.071004 0.0050352 0.13681 1 255 0 0
0.029118 -0.0078369 0.13827 1 255 0 0
0.01964 -0.00095742 0.1343 1 255 0 0
0.18445 -0.021292 0.13549 8 0 255 0
0.19061 -0.0080344 0.13652 8 0 255 0
0.20317 0.011548 0.1356 8 0 255 0
0.17252 0.0073711 0.1355 8 0 255 0
0.0039659 -0.010463 0.13513 1 255 0 0
0.064382 -0.0031997 0.13471 1 255 0 0
0.022388 -0.0068545 0.13852 1 255 0 0
0.10291 0.0013389 0.13758 1 255 0 0
0.088064 -0.0084366 0.13717 1 255 0 0
0.13398 -0.0015 0.13752 1 255 0 0
0.17873 0.013422 0.13763 8 0 255 0
0.017384 -0.0069623 0.13454 1 255 0 0
0.044556 -0.0021055 0.1345 1 255 0 0
-0.00041123 0.00095382 0.13419 1 255 0 0
0.13241 -0.0010853 0.13537 1 255 0 0
0.018883 -0.0018672 0.13427 1 255 0 0
0.080416 -0.0090791 0.137 1 255 0 0
0.22557 -0.017427 0.13545 8 0 255 0
0.18389 -0.014317 0.13549 8 0 255 0
0.056394 0.0033506 0.13514 1 255 0 0
0.21855 -0.0041788 0.13655 8 0 255 0
0.033863 -0.00065667 0.13444 1 255 0 0
0.18427 -0.0039818 0.13549 8 0 255 0
0.2312 -0.016765 0.13565 8 0 255 0
0.2069 -0.018275 0.1376 8 0 255 0
0.16764 0.014675 0.13551 8 0 255 0
0.13015 -0.0033454 0.13757 1 255 0 0
0.1883 -0.014127 0.13549 8 0 255 0
0.18409 -0.014126 0.13763 8 0 255 0
0.095512 -0.0073148 0.13743 1 255 0 0
0.18658 0.0090324 0.13762 8 0 255 0
0.010208 -0.0041689 0.13424 1 255 0 0
0.19056 -0.0097271 0.13762 8 0 255 0
0.18133 -0.016976 0.1355 8 0 255 0
0.16534 0.002658 0.13551 8 0 255 0
0.035366 0.0030805 0.13825 1 255 0 0
0.0067045 -0.010442 0.13516 1 255 0 0
0.21756 -0.0010375 0.13759 8 0 255 0
0.0033634 0.00833 0.13641 1 255 0 0
-0.0021368 0.0038698 0.1345 1 255 0 0
0.033579 -0.0060939 0.13461 1 255 0 0
0.15464 -0.0027069 0.13731 8 0 255 0
0.074546 -0.0023411 0.13477 1 255 0 0
0.10624 -0.0079046 0.137 1 255 0 0
0.20834 -0.013072 0.1376 8 0 255 0
0.046931 -0.0060345 0.13831 1 255 0 0
0.16551 0.014239 0.13764 8 0 255 0
0.050073 -0.0061699 0.13826 1 255 0 0
0.19507 0.00092202 0.13761 8 0 255 0
0.16412 -0.0048401 0.13765 8 0 255 0
0.17367 0.0039845 0.1355 8 0 255 0
0.13476 0.00089235 0.13568 1 255 0 0
0.033267 -0.0017563 0.1344 1 255 0 0
0.17651 0.018007 0.13691 8 0 255 0
0.16012 0.0090124 0.13765 8 0 255 0
0.14515 -0.0030997 0.13544 8 0 255 0
-0.0055189 0.0038547 0.13871 1 255 0 0
0.087326 0.0044241 0.1365 1 255 0 0
0.12617 0.0013194 0.13722 1 255 0 0
0.20711 0.0073607 0.1376 8 0 255 0
0.059947 -0.0066551 0.13496 1 255 0 0
0.18028 0.016295 0.13763 8 0 255 0
0.073898 -0.0044678 0.13485 1 255 0 0
0.20239 0.011531 0.13657 8 0 255 0
0.015483 -0.0041904 0.13883 1 255 0 0
0.21473 -0.016263 0.13717 8 0 255 0
0.20548 7.0391e-05 0.1376 8 0 255 0
0.19229 0.012452 0.13548 8 0 255 0
0.11631 -0.0057241 0.13542 1 255 0 0
0.20943 0.013085 0.1376 8 0 255 0
-0.0012127 -0.00070041 0.13904 1 255 0 0
0.22267 -0.012299 0.13545 8 0 255 0
0.012806 0.0059097 0.13516 1 255 0 0
0.011032 -0.0060899 0.13873 1 255 0 0
0.018609 -0.008965 0.13491 1 255 0 0
0.026924 0.0025893 0.13463 1 255 0 0
0.087029 -0.0045085 0.13498 1 255 0 0
0.0057229 -0.0040803 0.1342 1 255 0 0
0.16495 -0.0040558 0.13765 8 0 255 0
0.051894 -0.0084238 0.13783 1 255 0 0
0.19667 0.0089882 0.13761 8 0 255 0
0.077737 0.0015036 0.13507 1 255 0 0
0.15809 0.0048678 0.13765 8 0 255 0
-0.0094369 -0.0118 0.13538 1 255 0 0
0.16734 -0.0010866 0.13764 8 0 255 0
0.21176 -0.0097412 0.13609 8 0 255 0
0.046661 0.004862 0.13541 1 255 0 0
0.092102 -0.0018452 0.13495 1 255 0 0
0.20654 0.012517 0.1376 8 0 255 0
0.017468 -2.1277e-05 0.1388 1 255 0 0
0.1772 0.016528 0.1355 8 0 255 0
0.080173 0.0031308 0.13545 1 255 0 0
0.1432 -0.0068985 0.13642 1 255 0 0
0.08448 -0.00072875 0.13492 1 255 0 0
0.053871 0.0032224 0.13508 1 255 0 0
0.054735 -0.003006 0.13842 1 255 0 0
0.2102 -0.01303 0.1376 8 0 255 0
0.099333 -0.0079494 0.13579 1 255 0 0
0.041931 -0.008876 0.13521 1 255 0 0
0.11666 -0.0022917 0.13517 1 255 0 0
0.12315 -0.0077065 0.13642 1 255 0 0
0.020489 -0.011268 0.13731 1 255 0 0
0.21322 0.0069384 0.13546 8 0 255 0
0.021249 -0.0093813 0.13805 1 255 0 0
0.18663 0.0075795 0.13549 8 0 255 0
0.20079 0.0094965 0.13547 8 0 255 0
0.18793 -0.015101 0.13626 8 0 255 0
0.062814 -0.0098233 0.13704 1 255 0 0
0.19566 0.012687 0.13761 8 0 255 0
0.19449 0.011358 0.13588 8 0 255 0
0.1692 0.0016545 0.13764 8 0 255 0
0.060609 -0.0065151 0.13809 1 255 0 0
0.081837 -0.0046015 0.13804 1 255 0 0
0.028348 0.0039888 0.13819 1 255 0 0
0.21317 0.012532 0.13759 8 0 255 0
0.0048112 0.0043103 0.13847 1 255 0 0
0.060238 -0.007499 0.13792 1 255 0 0
0.049847 -0.009285 0.13545 1 255 0 0
0.17316 0.006178 0.13764 8 0 255 0
0.20156 -0.0018987 0.13547 8 0 255 0
0.17232 -0.00081133 0.1355 8 0 255 0
0.21133 -0.013126 0.13546 8 0 255 0
0.1887 -0.019055 0.13549 8 0 255 0
0.15534 -0.0085616 0.13766 8 0 255 0
0.025284 -0.00051432 0.13873 1 255 0 0
0.033461 0.0035664 0.13489 1 255 0 0
0.095238 -0.0057507 0.13519 1 255 0 0
0.064881 -0.00069822 0.13828 1 255 0 0
0.021866 0.0068297 0.13575 1 255 0 0
0.21556 0.0065134 0.13546 8 0 255 0
0.19348 0.011935 0.13548 8 0 255 0
0.0055545 -0.0062134 0.13435 1 255 0 0
0.19472 -0.0022206 0.13761 8 0 255 0
0.21664 0.013049 0.13759 8 0 255 0
0.022121 -0.0028757 0.1388 1 255 0 0
0.066356 -0.0064102 0.13498 1 255 0 0
0.18482 0.0087991 0.13549 8 0 255 0
0.19149 0.0053784 0.13548 8 0 255 0
-0.0038908 -0.0096535 0.13478 1 255 0 0
0.174 -0.022045 0.13764 8 0 255 0
0.034861 0.0029785 0.1348 1 255 0 0
0.17663 -0.0016172 0.1355 8 0 255 0
-0.012357 -0.0014145 0.13853 1 255 0 0
0.21109 0.00037447 0.13546 8 0 255 0
0.20716 -0.017213 0.1376 8 0 255 0
0.11425 -0.00046383 0.13524 1 255 0 0
0.089841 -0.0046702 0.13502 1 255 0 0
0.18129 -0.0025909 0.1355 8 0 255 0
0.19745 -0.01916 0.13548 8 0 255 0
0.10482 -0.0052588 0.13522 1 255 0 0
0.17354 -0.018718 0.1355 8 0 255 0
0.037025 -0.010665 0.13723 1 255 0 0
0.1658 0.013429 0.13551 8 0 255 0
0.20272 -0.0092793 0.13761 8 0 255 0
0.16652 -0.0071644 0.13764 8 0 255 0
-0.012355 0.0001892 0.13601 1 255 0 0
0.15482 -0.0050671 0.13766 8 0 255 0
0.045156 0.0048909 0.13766 1 255 0 0
0.08724 -0.0060852 0.13516 1 255 0 0
0.14955 -0.0063541 0.13675 8 0 255 0
0.18553 0.0096469 0.13549 8 0 255 0
0.19787 0.011432 0.13657 8 0 255 0
0.16749 0.013994 0.13764 8 0 255 0
0.1714 0.0075346 0.1355 8 0 255 0
0.16666 0.0054751 0.13551 8 0 255 0
0.17564 -0.019641 0.1355 8 0 255 0
-0.00071841 0.0046687 0.13466 1 255 0 0
0.21192 0.0071042 0.13546 8 0 255 0
0.088956 0.0032727 0.13733 1 255 0 0
0.06583 -0.0027435 0.13831 1 255 0 0
0.013086 -0.00073194 0.13425 1 255 0 0
0.066328 -0.0096689 0.13703 1 255 0 0
0.021225 0.00047968 0.13437 1 255 0 0
0.028673 -0.0043665 0.13442 1 255 0 0
0.18473 0.012207 0.13549 8 0 255 0
0.037972 -0.0086873 0.13509 1 255 0 0
0.21124 0.0054776 0.13748 8 0 255 0
0.080405 -0.0057039 0.13795 1 255 0 0
0.0055638 -0.0023967 0.139 1 255 0 0
0.03342 -0.0081409 0.13816 1 255 0 0
0.064759 0.0041758 0.13751 1 255 0 0
0.22256 0.0068773 0.13545 8 0 255 0
0.15309 0.0011956 0.13663 8 0 255 0
0.18242 0.0076357 0.13763 8 0 255 0
0.053637 -0.0091126 0.13759 1 255 0 0
0.19683 -0.003623 0.13548 8 0 255 0
0.21881 -0.016388 0.13603 8 0 255 0
0.11962 -0.0023622 0.13519 1 255 0 0
0.039896 0.0017883 0.13838 1 255 0 0
0.16147 0.011964 0.13765 8 0 255 0
0.034755 -0.002097 0.13867 1 255 0 0
0.0092791 -0.0084303 0.13843 1 255 0 0
0.18011 -0.00058685 0.13763 8 0 255 0
0.21374 -0.013397 0.13572 8 0 255 0
0.10688 0.001386 0.13541 1 255 0 0
0.2143 0.011791 0.13678 8 0 255 0
0.082045 0.00012204 0.13802 1 255 0 0
0.0098193 0.0017539 0.13437 1 255 0 0
0.19011 -0.004786 0.13549 8 0 255 0
0.23238 -0.017407 0.13548 8 0 255 0
0.035094 0.00097302 0.13456 1 255 0 0
0.10808 -0.0081522 0.13614 1 255 0 0
-0.0041988 -0.012804 0.1364 1 255 0 0
0.063147 -0.0082288 0.13532 1 255 0 0
0.10111 -0.0047152 0.1378 1 255 0 0
0.12237 -0.0021396 0.13523 1 255 0 0
0.16798 -0.012823 0.13764 8 0 255 0
-0.0051631 0.007889 0.13756 1 255 0 0
0.0010938 0.0020732 0.13883 1 255 0 0
0.16271 0.0019567 0.13765 8 0 255 0
0.17197 -0.0097986 0.13764 8 0 255 0
0.11279 -0.0057534 0.13753 1 255 0 0
0.026256 0.0029282 0.13841 1 255 0 0
0.1042 0.0030151 0.13587 1 255 0 0
0.074104 0.0011505 0.13498 1 255 0 0
0.18835 0.010639 0.13762 8 0 255 0
-0.012328 0.0080506 0.13604 1 255 0 0
0.20598 -0.017581 0.1376 8 0 255 0
0.024461 -0.0069942 0.13848 1 255 0 0
0.18808 0.0099987 0.13549 8 0 255 0
0.068261 -0.0076581 0.13778 1 255 0 0
0.17277 0.016266 0.1355 8 0 255 0
0.024856 -0.011692 0.13661 1 255 0 0
-0.0082229 -0.0026235 0.13914 1 255 0 0
0.014116 0.0063082 0.13531 1 255 0 0
0.11426 -0.00047732 0.13767 1 255 0 0
0.0074146 0.002886 0.13446 1 255 0 0
-0.0014463 0.0060327 0.13496 1 255 0 0
0.044507 0.0020294 0.1383 1 255 0 0
0.18773 -0.019667 0.13549 8 0 255 0
-0.011374 0.003209 0.13429 1 255 0 0
0.049072 0.0024256 0.13488 1 255 0 0
0.19835 -0.0038004 0.13761 8 0 255 0
0.10711 -0.0062049 0.1354 1 255 0 0
0.1645 -0.018884 0.13551 8 0 255 0
0.093575 -0.0079814 0.13569 1 255 0 0
0.16601 -0.016737 0.13765 8 0 255 0
0.19537 -0.01461 0.13681 8 0 255 0
0.17443 0.0039077 0.13763 8 0 255 0
0.031523 0.0070812 0.13654 1 255 0 0
0.015878 -0.011936 0.13683 1 255 0 0
0.068561 2.1652e-05 0.13481 1 255 0 0
0.23536 0.0070717 0.13586 8 0 255 0
0.057473 -0.0083647 0.13775 1 255 0 0
0.20976 0.014903 0.13592 8 0 255 0
0.16961 0.0087834 0.13764 8 0 255 0
0.20434 0.0076033 0.1376 8 0 255 0
0.16473 0.0051553 0.13764 8 0 255 0
0.015677 -0.0026251 0.13424 1 255 0 0
0.13626 -0.0063918 0.13703 1 255 0 0
0.14279 -0.00058311 0.13552 8 0 255 0
0.048036 -0.0010993 0.13849 1 255 0 0
0.062769 0.0018089 0.13494 1 255 0 0
0.19949 -0.011573 0.13761 8 0 255 0
0.2175 0.0086616 0.13759 8 0 255 0
0.1513 -0.00026949 0.13567 8 0 255 0
0.028078 -0.0053289 0.13449 1 255 0 0
0.040376 0.0031242 0.1349 1 255 0 0
0.22443 -0.0012679 0.13545 8 0 255 0
0.18527 -0.0034142 0.13549 8 0 255 0
0.1922 -0.012078 0.13762 8 0 255 0
0.010333 0.0053272 0.13495 1 255 0 0
0.19246 -0.0081834 0.13601 8 0 255 0
0.050724 0.0023766 0.13489 1 255 0 0
-0.0061243 -0.0088359 0.13856 1 255 0 0
0.1246 -0.00501 0.13539 1 255 0 0
0.053562 -0.0087023 0.13532 1 255 0 0
0.092903 -0.0065764 0.13531 1 255 0 0
-0.0069813 0.0019295 0.13422 1 255 0 0
0.23264 0.0074455 0.13757 8 0 255 0
0.21341 -0.012107 0.13546 8 0 255 0
0.036888 -0.00048227 0.1386 1 255 0 0
0.11535 -0.0023156 0.13775 1 255 0 0
-0.0092836 0.0026968 0.13427 1 255 0 0
-0.0050553 -0.0028875 0.13406 1 255 0 0
0.15811 -0.0063403 0.13765 8 0 255 0
0.038682 -0.0075249 0.13487 1 255 0 0
0.17406 -0.0036591 0.13764 8 0 255 0
0.18436 0.0078687 0.13549 8 0 255 0
0.07641 -0.0043065 0.13813 1 255 0 0
0.10941 -0.0051818 0.13526 1 255 0 0
0.17239 0.014608 0.13764 8 0 255 0
0.19792 0.015596 0.13761 8 0 255 0
0.23581 -0.0024777 0.13616 8 0 255 0
0.20404 0.0057553 0.13547 8 0 255 0
0.13253 0.0011296 0.13572 1 255 0 0
0.094039 0.0021904 0.1354 1 255 0 0
0.19636 -0.0057362 0.13548 8 0 255 0
0.22906 0.0072037 0.13758 8 0 255 0
0.11665 -0.0028128 0.13773 1 255 0 0
0.17169 -0.011008 0.13764 8 0 255 0
-0.0073647 -0.011813 0.13773 1 255 0 0
0.20291 0.0076883 0.1376 8 0 255 0
-0.0090874 -0.010531 0.13821 1 255 0 0
0.22113 -0.012284 0.13545 8 0 255 0
0.20724 0.014766 0.13547 8 0 255 0
0.030722 -0.0068702 0.13842 1 255 0 0
0.054793 -0.0013161 0.13462 1 255 0 0
0.00039862 9.8284e-05 0.139 1 255 0 0
0.15083 -0.0028431 0.13549 8 0 255 0
0.062154 0.0035439 0.13527 1 255 0 0
0.068204 -0.0083841 0.13544 1 255 0 0
0.091285 -0.0061024 0.13521 1 255 0 0
0.044769 -0.0088868 0.13525 1 255 0 0
0.018907 0.0050833 0.13502 1 255 0 0
0.099927 -0.0037947 0.13789 1 255 0 0
0.056977 -0.00065422 0.13466 1 255 0 0
-0.0072399 -0.0034249 0.13911 1 255 0 0
0.091342 -0.0055506 0.13784 1 255 0 0
0.11496 -0.0012787 0.13518 1 255 0 0
0.20045 -0.0042836 0.13761 8 0 255 0
0.19178 0.015294 0.13548 8 0 255 0
0.0030686 -0.011413 0.13546 1 255 0 0
0.16017 -0.0071574 0.13552 8 0 255 0
0.10712 -0.0048598 0.13521 1 255 0 0
0.18419 -0.012401 0.13549 8 0 255 0
0.04329 -0.010775 0.13688 1 255 0 0
0.0064856 0.0079506 0.136 1 255 0 0
0.16548 -0.0085676 0.13551 8 0 255 0
0.17312 -0.017054 0.13764 8 0 255 0
0.060794 -0.0037269 0.13833 1 255 0 0
0.18206 0.017489 0.13717 8 0 255 0
0.19732 0.014078 0.13761 8 0 255 0
-0.00013964 -0.01273 0.13659 1 255 0 0
0.010443 0.0022489 0.1387 1 255 0 0
0.15889 0.0071334 0.13552 8 0 255 0
0.15959 0.011733 0.13556 8 0 255 0
0.11876 -0.0028736 0.13771 1 255 0 0
0.19332 -0.0066651 0.13594 8 0 255 0
0.21873 -0.018276 0.13546 8 0 255 0
0.10876 -0.006373 0.13545 1 255 0 0
0.17258 0.0086648 0.1355 8 0 255 0
0.013786 -0.012092 0.13642 1 255 0 0
0.18674 -0.021056 0.13762 8 0 255 0
0.035239 -5.4251e-05 0.1386 1 255 0 0
0.20414 0.0013997 0.13632 8 0 255 0
0.046798 -0.0085209 0.13517 1 255 0 0
0.18797 0.00023956 0.13762 8 0 255 0
0.21109 -0.010919 0.13547 8 0 255 0
0.18755 -0.015675 0.13549 8 0 255 0
0.18438 0.0020054 0.13762 8 0 255 0
0.22193 -0.016483 0.13712 8 0 255 0
0.036657 -0.0021449 0.13865 1 255 0 0
0.20301 -0.0048269 0.13547 8 0 255 0
0.095694 0.0036524 0.13696 1 255 0 0
0.1732 0.011037 0.1355 8 0 255 0
0.068372 -0.0010897 0.13475 1 255 0 0
0.18519 0.0084344 0.13762 8 0 255 0
0.17323 -0.005572 0.1355 8 0 255 0
0.20253 0.0049015 0.13707 8 0 255 0
0.076399 0.0031742 0.13759 1 255 0 0
0.010095 0.0065935 0.13533 1 255 0 0
0.12745 0.00032702 0.13548 1 255 0 0
0.1375 -0.0055138 0.13562 1 255 0 0
0.11804 -0.0016233 0.1377 1 255 0 0
0.21122 -0.017466 0.13547 8 0 255 0
0.18212 0.01213 0.13763 8 0 255 0
0.015353 -0.0041369 0.13429 1 255 0 0
-0.011091 0.0011992 0.13907 1 255 0 0
0.12546 0.0012627 0.13564 1 255 0 0
0.19895 -0.017917 0.13761 8 0 255 0
0.17345 -0.011994 0.1355 8 0 255 0
0.18877 0.011312 0.13549 8 0 255 0
0.18451 0.012805 0.13762 8 0 255 0
0.19326 -0.020793 0.13584 8 0 255 0
0.032102 0.0031154 0.13479 1 255 0 0
0.17558 0.0076071 0.13763 8 0 255 0
0.20691 -0.011032 0.13547 8 0 255 0
0.13326 -0.0033243 0.13753 1 255 0 0
0.18488 -0.019531 0.13549 8 0 255 0
0.19828 -0.00031713 0.13548 8 0 255 0
0.18531 0.010988 0.13569 8 0 255 0
0.20504 -0.005339 0.1376 8 0 255 0
0.17065 0.0054377 0.13764 8 0 255 0
0.1904 -0.014937 0.13603 8 0 255 0
0.0010482 -0.010369 0.13809 1 255 0 0
0.10601 -0.0047481 0.13519 1 255 0 0
0.098922 -0.0057005 0.13522 1 255 0 0
0.0089458 0.0068022 0.13538 1 255 0 0
0.0087015 -0.011403 0.13754 1 255 0 0
0.18616 0.0044693 0.13549 8 0 255 0
0.023959 -0.0020266 0.13879 1 255 0 0
0.032863 0.0012591 0.13852 1 255 0 0
0.18288 -0.013873 0.13763 8 0 255 0
0.13662 -0.0054416 0.13727 1 255 0 0
0.10849 -0.0016365 0.13511 1 255 0 0
0.20978 -0.016576 0.13547 8 0 255 0
0.068918 -0.0067664 0.13508 1 255 0 0
0.18964 -0.015892 0.13549 8 0 255 0
0.034482 -0.0083199 0.13811 1 255 0 0
0.16367 0.012741 0.13764 8 0 255 0
0.08655 -0.0046996 0.13798 1 255 0 0
0.20792 -0.0010276 0.1376 8 0 255 0
0.19959 0.001903 0.13681 8 0 255 0
0.042707 0.0046184 0.13527 1 255 0 0
0.058883 0.0057266 0.13662 1 255 0 0
0.093622 -0.0042899 0.13793 1 255 0 0
0.024677 -0.0039769 0.13873 1 255 0 0
0.11142 -0.003798 0.13516 1 255 0 0
0.071702 0.002883 0.13524 1 255 0 0
0.20129 0.0060157 0.13761 8 0 255 0
0.0050455 -0.011613 0.13752 1 255 0 0
-0.012054 -0.0075961 0.13886 1 255 0 0
0.051187 -0.0015702 0.13458 1 255 0 0
0.16209 -0.0044077 0.13552 8 0 255 0
0.067049 0.0011774 0.13491 1 255 0 0
0.17136 -0.0088782 0.13764 8 0 255 0
0.029277 -0.0035407 0.13869 1 255 0 0
0.11978 -0.0050083 0.13756 1 255 0 0
0.18517 0.013827 0.13762 8 0 255 0
0.18943 -0.0070478 0.13705 8 0 255 0
0.17861 0.00039042 0.13763 8 0 255 0
0.059312 -0.0063885 0.13813 1 255 0 0
0.047938 -0.0074938 0.13497 1 255 0 0
0.15922 -0.0082985 0.13765 8 0 255 0
0.10404 -0.00064095 0.13782 1 255 0 0
0.11777 0.001415 0.13556 1 255 0 0
0.162 -0.007236 0.13552 8 0 255 0
0.16459 -0.001553 0.13551 8 0 255 0
0.082287 0.0046615 0.13651 1 255 0 0
0.18776 0.014438 0.13762 8 0 255 0
0.0038628 0.0063961 0.13516 1 255 0 0
0.068524 -0.0047392 0.13819 1 255 0 0
0.11719 -0.0075101 0.13694 1 255 0 0
0.16132 -0.012949 0.13552 8 0 255 0
0.027253 0.0027602 0.13843 1 255 0 0
0.19291 -0.00822 0.13733 8 0 255 0
0.013017 -0.0059209 0.1344 1 255 0 0
0.2001 0.011988 0.13547 8 0 255 0
0.078049 -0.0094717 0.13664 1 255 0 0
0.15745 -0.0082744 0.13552 8 0 255 0
0.012634 -0.0048014 0.13884 1 255 0 0
0.085442 -0.0010217 0.13492 1 255 0 0
0.091034 -0.0013984 0.138 1 255 0 0
0.20053 -0.0094075 0.13761 8 0 255 0
0.14756 -0.0066183 0.13623 1 255 0 0
0.21577 -0.01166 0.13759 8 0 255 0
0.21916 -0.00026107 0.13578 8 0 255 0
0.19712 0.010138 0.13567 8 0 255 0
0.048924 -0.0001127 0.13845 1 255 0 0
0.18182 -0.021783 0.13584 8 0 255 0
0.20649 -0.00056667 0.1376 8 0 255 0
0.17012 0.00027261 0.13764 8 0 255 0
0.015256 0.0044702 0.13829 1 255 0 0
0.16521 0.010141 0.13764 8 0 255 0
0.050623 0.0041595 0.13527 1 255 0 0
0.01712 -0.010709 0.13772 1 255 0 0
0.19288 0.00012045 0.13762 8 0 255 0
0.067162 0.0024628 0.1379 1 255 0 0
0.20514 0.00739 0.13547 8 0 255 0
-0.012334 0.0059896 0.13666 1 255 0 0
0.06171 0.0011513 0.13485 1 255 0 0
0.1102 -0.0021427 0.13511 1 255 0 0
0.040058 0.0057893 0.13566 1 255 0 0
0.11692 -0.0015975 0.13771 1 255 0 0
0.0017105 0.0081207 0.13722 1 255 0 0
0.11377 -0.0073201 0.13712 1 255 0 0
0.04039 -0.0033242 0.13449 1 255 0 0
0.053892 0.0055157 0.13589 1 255 0 0
0.1827 -0.018521 0.1355 8 0 255 0
0.17176 0.015983 0.1355 8 0 255 0
0.034693 0.0046682 0.13515 1 255 0 0
0.114 -0.0062261 0.13743 1 255 0 0
0.066416 0.0049896 0.13594 1 255 0 0
0.22828 -0.01206 0.13545 8 0 255 0
0.026486 0.0053511 0.13522 1 255 0 0
0.19248 0.015056 0.13761 8 0 255 0
0.17156 -0.0020673 0.13551 8 0 255 0
0.019744 -0.010356 0.13778 1 255 0 0
0.17416 -0.0049042 0.13764 8 0 255 0
0.12955 -0.0044769 0.13539 1 255 0 0
-0.01199 -0.0020914 0.1392 1 255 0 0
0.22912 0.012118 0.13758 8 0 255 0
0.025965 -0.0063982 0.13853 1 255 0 0
0.00053809 0.0081228 0.13726 1 255 0 0
-0.011398 0.0081367 0.13557 1 255 0 0
0.015282 0.0075719 0.13706 1 255 0 0
0.22354 -0.011437 0.13758 8 0 255 0
0.086675 0.00088058 0.13789 1 255 0 0
0.07139 -0.0019607 0.13475 1 255 0 0
0.22266 -0.0016883 0.13758 8 0 255 0
0.1066 -0.003416 0.1351 1 255 0 0
0.094657 -0.0015739 0.13498 1 255 0 0
0.015249 0.0058793 0.13792 1 255 0 0
0.19517 0.0020828 0.13761 8 0 255 0
0.19205 0.0027366 0.1376 8 0 255 0
0.19681 -0.01242 0.13761 8 0 255 0
0.18227 -0.017805 0.13763 8 0 255 0
0.11801 -0.0026581 0.13518 1 255 0 0
0.069239 0.0032414 0.13771 1 255 0 0
0.19031 -0.010016 0.13549 8 0 255 0
0.17394 0.0021043 0.13764 8 0 255 0
0.11907 -0.00055356 0.13762 1 255 0 0
0.17217 -0.0019853 0.13764 8 0 255 0
0.028563 -0.00062264 0.13439 1 255 0 0
0.18048 -0.011015 0.1355 8 0 255 0
0.076209 -0.0066846 0.13785 1 255 0 0
0.1837 0.0036076 0.13549 8 0 255 0
0.11813 -5.8193e-06 0.13532 1 255 0 0
0.17562 -0.012704 0.1355 8 0 255 0
0.10031 -0.0085562 0.13664 1 255 0 0
0.00029288 -0.0053751 0.13422 1 255 0 0
0.16533 0.0084761 0.13551 8 0 255 0
0.19096 0.013859 0.13762 8 0 255 0
0.1798 0.010433 0.13763 8 0 255 0
-0.0058879 -0.0024045 0.13912 1 255 0 0
0.21351 -0.016226 0.13746 8 0 255 0
0.1448 -0.0026287 0.13742 8 0 255 0
0.18722 -0.013487 0.13762 8 0 255 0
0.067315 -0.007908 0.13528 1 255 0 0
-0.0022835 -0.01279 0.13651 1 255 0 0
0.027942 -0.0066226 0.13461 1 255 0 0
0.21744 0.0058871 0.13559 8 0 255 0
0.16015 -0.015722 0.13552 8 0 255 0
0.17003 -0.0030594 0.13764 8 0 255 0
0.19474 -0.020665 0.13606 8 0 255 0
0.17915 0.0061912 0.1355 8 0 255 0
0.075593 0.00035221 0.13807 1 255 0 0
0.043252 0.0015387 0.13836 1 255 0 0
0.046474 0.0035922 0.13506 1 255 0 0
0.11585 -0.0013991 0.13772 1 255 0 0
0.047907 -0.0050778 0.1384 1 255 0 0
0.013541 -0.0037759 0.13886 1 255 0 0
0.08792 -0.0023886 0.1349 1 255 0 0
-0.012037 -0.00019131 0.13403 1 255 0 0
-0.0094567 0.0051623 0.13464 1 255 0 0
0.18359 0.0088123 0.13762 8 0 255 0
0.18411 -0.010242 0.13549 8 0 255 0
0.1728 -0.01082 0.13764 8 0 255 0
0.015518 0.0040532 0.13475 1 255 0 0
0.16904 0.011244 0.13551 8 0 255 0
0.026357 0.0012678 0.1345 1 255 0 0
-0.012351 0.0010825 0.13694 1 255 0 0
0.099273 0.0037841 0.13632 1 255 0 0
0.08036 0.00095562 0.13503 1 255 0 0
0.16353 -0.0017434 0.13765 8 0 255 0
0.19517 -0.0043463 0.13761 8 0 255 0
0.19053 0.015437 0.13762 8 0 255 0
0.085243 -0.0082213 0.13733 1 255 0 0
0.20835 -0.00301 0.13547 8 0 255 0
0.21765 0.0086605 0.1363 8 0 255 0
0.17374 0.0071679 0.13763 8 0 255 0
0.044158 -0.0053829 0.13841 1 255 0 0
0.12196 -0.0059054 0.13738 1 255 0 0
0.050832 -0.0090212 0.13766 1 255 0 0
0.1859 -0.018371 0.13762 8 0 255 0
0.19362 -0.01789 0.13548 8 0 255 0
0.20623 0.014075 0.1376 8 0 255 0
0.13333 -0.0016441 0.13534 1 255 0 0
0.21314 -0.0014632 0.13546 8 0 255 0
0.18088 -0.0069546 0.13763 8 0 255 0
0.21202 0.00052829 0.13579 8 0 255 0
0.15463 -0.0067034 0.13568 8 0 255 0
0.037493 0.0061593 0.13727 1 255 0 0
0.21334 0.0056835 0.13546 8 0 255 0
0.04787 -0.00094891 0.13457 1 255 0 0
0.16514 0.003879 0.13764 8 0 255 0
0.019356 -0.0027566 0.13428 1 255 0 0
0.21452 0.0069726 0.13546 8 0 255 0
0.065031 -0.0050716 0.13482 1 255 0 0
0.2246 -0.012255 0.13545 8 0 255 0
0.1625 -0.012086 0.13552 8 0 255 0
0.032399 -0.0088691 0.13802 1 255 0 0
0.098699 -0.0038596 0.1379 1 255 0 0
0.088388 -0.0084998 0.13585 1 255 0 0
0.22799 -0.01681 0.13545 8 0 255 0
0.16415 -0.011746 0.13551 8 0 255 0
0.0066402 -0.0094747 0.13487 1 255 0 0
0.17822 -0.002015 0.13763 8 0 255 0
0.057081 -0.0096425 0.13729 1 255 0 0
0.10216 0.0021997 0.1374 1 255 0 0
0.19645 -0.0013899 0.13761 8 0 255 0
0.0653 0.0023647 0.13507 1 255 0 0
0.19871 -0.0035895 0.13548 8 0 255 0
0.0027807 0.0063389 0.13513 1 255 0 0
0.014379 0.003464 0.13463 1 255 0 0
0.17468 -0.0071358 0.13764 8 0 255 0
0.18654 0.013108 0.13762 8 0 255 0
0.19041 -0.020133 0.13549 8 0 255 0
0.18885 -0.012525 0.13762 8 0 255 0
0.011233 -0.0081428 0.13845 1 255 0 0
0.16356 0.0047746 0.13765 8 0 255 0
0.13322 -0.0021632 0.13754 1 255 0 0
0.17821 0.013141 0.1355 8 0 255 0
0.1182 -0.0077407 0.13677 1 255 0 0
0.16188 -0.0014721 0.13552 8 0 255 0
0.0020229 -0.010858 0.13793 1 255 0 0
0.22321 -0.0019344 0.13545 8 0 255 0
-0.0013854 -0.01139 0.13534 1 255 0 0
0.0043599 -0.0046977 0.1342 1 255 0 0
-7.0419e-05 0.0052259 0.13838 1 255 0 0
0.20593 -0.0191 0.13547 8 0 255 0
0.11877 0.0016812 0.13565 1 255 0 0
0.18103 0.004848 0.13549 8 0 255 0
0.17033 -0.011741 0.13764 8 0 255 0
0.12879 -0.0014496 0.13531 1 255 0 0
0.0025819 -0.0052315 0.13423 1 255 0 0
0.0043197 0.0072392 0.1355 1 255 0 0
0.16599 -0.019583 0.13551 8 0 255 0
0.15376 0.00018291 0.13578 8 0 255 0
0.15132 -0.0043712 0.13559 8 0 255 0
0.0227 -0.010777 0.13753 1 255 0 0
-0.011049 0.0090995 0.13658 1 255 0 0
0.16737 -0.016999 0.13551 8 0 255 0
0.19519 -0.018803 0.13548 8 0 255 0
0.18773 -0.0047868 0.13549 8 0 255 0
0.13825 -0.0033926 0.13747 1 255 0 0
0.090076 0.0037015 0.13586 1 255 0 0
0.10559 -0.0019757 0.13786 1 255 0 0
0.17189 -0.0038451 0.13551 8 0 255 0
0.2 -0.017777 0.13548 8 0 255 0
0.22201 -0.011997 0.13759 8 0 255 0
-0.011388 0.00068876 0.13406 1 255 0 0
0.17185 -0.019469 0.13764 8 0 255 0
0.15691 -0.002705 0.13552 8 0 255 0
0.2047 -0.013785 0.1376 8 0 255 0
0.1747 0.0014381 0.13763 8 0 255 0
0.067196 -0.0089626 0.1356 1 255 0 0
0.12008 0.0027796 0.13663 1 255 0 0
0.067281 0.003984 0.13752 1 255 0 0
0.13257 -0.0041651 0.13539 1 255 0 0
0.10223 0.0033915 0.13691 1 255 0 0
0.077916 0.004434 0.13594 1 255 0 0
0.17492 -0.022065 0.1355 8 0 255 0
0.05222 -0.0077247 0.13506 1 255 0 0
0.010199 -0.0018421 0.13418 1 255 0 0
0.048204 0.001578 0.1383 1 255 0 0
0.054303 0.0034396 0.13791 1 255 0 0
0.038462 0.0033666 0.13492 1 255 0 0
0.03903 -0.0034604 0.13448 1 255 0 0
0.088902 -0.0024106 0.13806 1 255 0 0
0.10317 -0.0076442 0.1372 1 255 0 0
0.049009 0.0037869 0.13792 1 255 0 0
0.1385 -0.005429 0.13562 1 255 0 0
0.16861 -0.0021551 0.13551 8 0 255 0
0.21327 0.0089264 0.13759 8 0 255 0
0.087736 0.00192 0.1377 1 255 0 0
0.21593 -0.0163 0.13667 8 0 255 0
0.19723 -0.0031204 0.13761 8 0 255 0
0.033638 0.0024026 0.13468 1 255 0 0
0.19348 0.0096355 0.13548 8 0 255 0
0.060249 -0.0045696 0.1383 1 255 0 0
0.18118 -0.018662 0.1355 8 0 255 0
0.21644 0.0058209 0.1362 8 0 255 0
0.15699 -0.012568 0.13611 8 0 255 0
0.20119 0.0081125 0.13761 8 0 255 0
0.087319 -0.0039064 0.13803 1 255 0 0
0.16046 -0.016845 0.13607 8 0 255 0
0.21274 -0.013085 0.13546 8 0 255 0
0.1772 -0.0026456 0.13763 8 0 255 0
0.22586 -0.017971 0.1366 8 0 255 0
-0.0036203 -0.010747 0.13511 1 255 0 0
0.17511 -0.0020485 0.1355 8 0 255 0
0.038063 0.0050621 0.13774 1 255 0 0
0.23102 0.0076988 0.13562 8 0 255 0
0.0063772 -0.012391 0.13642 1 255 0 0
0.22169 -0.011397 0.13545 8 0 255 0
0.10872 0.001685 0.13743 1 255 0 0
0.19817 -0.018188 0.13548 8 0 255 0
0.033372 -0.0070862 0.13835 1 255 0 0
0.22941 0.0066782 0.13617 8 0 255 0
0.14383 -0.0046715 0.13555 8 0 255 0
0.070449 -0.0037351 0.13822 1 255 0 0
0.19066 -0.0069268 0.13698 8 0 255 0
0.2137 -0.018671 0.13546 8 0 255 0
0.15793 0.0027408 0.13552 8 0 255 0
0.1816 -0.015047 0.13763 8 0 255 0
0.06077 -0.0041457 0.1347 1 255 0 0
0.17078 -0.01383 0.13764 8 0 255 0
0.031459 -0.0094322 0.13787 1 255 0 0
0.13031 -0.0070034 0.13688 1 255 0 0
-0.0031947 -0.00045816 0.1341 1 255 0 0
0.19078 -0.013933 0.13549 8 0 255 0
0.071296 -0.0094155 0.13705 1 255 0 0
0.22877 -0.0013879 0.13545 8 0 255 0
0.18883 -0.015475 0.13652 8 0 255 0
0.058827 0.0033398 0.13516 1 255 0 0
0.033047 0.0055799 0.1354 1 255 0 0
0.07382 0.0026134 0.13522 1 255 0 0
-0.012344 0.0036525 0.13465 1 255 0 0
0.04051 -0.0060238 0.13468 1 255 0 0
0.012337 -0.0060907 0.13872 1 255 0 0
0.1258 -0.0018061 0.13527 1 255 0 0
0.21377 0.0085522 0.13546 8 0 255 0
0.17194 -0.015514 0.13764 8 0 255 0
0.11996 -0.0035889 0.13767 1 255 0 0
0.1625 -0.018416 0.13636 8 0 255 0
0.17504 -0.016491 0.1355 8 0 255 0
0.13877 -0.006985 0.13661 1 255 0 0
0.1897 0.013777 0.13762 8 0 255 0
0.15694 0.00078365 0.13552 8 0 255 0
0.080271 0.0019088 0.13781 1 255 0 0
0.20656 0.0052397 0.1376 8 0 255 0
0.20763 -0.0094079 0.13625 8 0 255 0
0.21514 -0.010613 0.13759 8 0 255 0
0.23049 -0.012172 0.13544 8 0 255 0
0.17081 -0.0068049 0.13551 8 0 255 0
0.21722 0.013188 0.13546 8 0 255 0
0.064218 -0.0043831 0.13475 1 255 0 0
0.031022 0.0064108 0.13577 1 255 0 0
0.19182 -0.019206 0.13762 8 0 255 0
0.21437 -0.0031633 0.13759 8 0 255 0
0.11354 0.00083606 0.13752 1 255 0 0
0.18688 -0.021346 0.13629 8 0 255 0
0.18647 -0.0089939 0.13549 8 0 255 0
0.19005 -0.012523 0.13762 8 0 255 0
0.16433 0.013601 0.13764 8 0 255 0
0.16398 -0.01924 0.13765 8 0 255 0
0.20611 0.0011814 0.13598 8 0 255 0
0.13727 0.0013046 0.13701 1 255 0 0
0.052377 -0.001512 0.13459 1 255 0 0
0.030704 0.0036129 0.13486 1 255 0 0
0.14089 0.0015019 0.13602 1 255 0 0
0.07153 -0.0063916 0.13796 1 255 0 0
-0.0093362 0.00036534 0.13407 1 255 0 0
0.16791 -0.00054736 0.13551 8 0 255 0
0.085939 -0.0024738 0.13809 1 255 0 0
0.058027 -0.01035 0.13655 1 255 0 0
0.20529 -0.015976 0.13697 8 0 255 0
0.18196 -0.002278 0.13763 8 0 255 0
0.12265 -0.0042373 0.1376 1 255 0 0
0.074178 -0.0073367 0.13524 1 255 0 0
0.19257 -0.001199 0.13548 8 0 255 0
0.18645 0.016232 0.13549 8 0 255 0
0.071548 0.0036777 0.13753 1 255 0 0
0.17623 0.011194 0.13763 8 0 255 0
0.053109 -0.0039868 0.13841 1 255 0 0
0.16781 0.00047614 0.13551 8 0 255 0
0.23738 0.0072054 0.13546 8 0 255 0
0.19599 0.014225 0.13548 8 0 255 0
0.16134 -0.017403 0.13765 8 0 255 0
0.11461 -0.0053488 0.13758 1 255 0 0
0.21248 -0.0018925 0.1376 8 0 255 0
0.18069 -0.0092094 0.13763 8 0 255 0
0.23528 -0.016889 0.13683 8 0 255 0
0.058433 -0.003109 0.13465 1 255 0 0
0.062154 -0.0081616 0.13774 1 255 0 0
0.0090864 -0.0049434 0.13427 1 255 0 0
0.21038 0.0081089 0.13546 8 0 255 0
0.0040016 -0.011734 0.13748 1 255 0 0
0.11338 -0.0010079 0.13518 1 255 0 0
0.0019015 0.0051454 0.13837 1 255 0 0
0.057815 0.0036556 0.13523 1 255 0 0
0.029874 -0.010241 0.13544 1 255 0 0
0.029369 0.0044855 0.13808 1 255 0 0
0.04166 -0.0059309 0.13468 1 255 0 0
0.20677 -0.016021 0.1362 8 0 255 0
0.2011 -0.0050442 0.13761 8 0 255 0
0.21581 -0.0032993 0.13546 8 0 255 0
0.15876 -0.011624 0.13765 8 0 255 0
0.16051 -9.3138e-05 0.13552 8 0 255 0
0.18312 0.0011434 0.13763 8 0 255 0
0.078532 -0.0086635 0.13728 1 255 0 0
0.016042 0.0052828 0.13809 1 255 0 0
0.19208 0.0073458 0.13548 8 0 255 0
0.17677 -0.0070615 0.13763 8 0 255 0
0.18796 -0.020614 0.13762 8 0 255 0
0.045389 0.0032489 0.13807 1 255 0 0
0.011688 0.00056261 0.13428 1 255 0 0
0.027827 0.0055857 0.13532 1 255 0 0
0.11927 -0.0078335 0.13637 1 255 0 0
0.19375 -0.014717 0.13583 8 0 255 0
0.078636 0.00083666 0.135 1 255 0 0
0.066248 0.0013529 0.13809 1 255 0 0
0.064163 -0.0072518 0.13791 1 255 0 0
0.20019 0.0084378 0.13761 8 0 255 0
0.0016596 0.0039903 0.13457 1 255 0 0
-0.00092809 -0.0075216 0.13873 1 255 0 0
0.19258 0.0046958 0.13762 8 0 255 0
0.20196 -0.017916 0.13548 8 0 255 0
0.0025213 0.0018572 0.13431 1 255 0 0
0.075227 -0.0095356 0.13674 1 255 0 0
0.035702 -0.0071674 0.1383 1 255 0 0
0.11073 -0.00038704 0.13771 1 255 0 0
0.091044 -0.0042403 0.13797 1 255 0 0
0.0046009 -0.0056688 0.13885 1 255 0 0
0.0070457 -0.011823 0.13735 1 255 0 0
0.18895 -0.0046753 0.13762 8 0 255 0
0.048051 -0.0062402 0.13828 1 255 0 0
0.17959 0.0044251 0.1355 8 0 255 0
0.22023 -0.012969 0.13611 8 0 255 0
0.1982 -0.00062965 0.13761 8 0 255 0
0.17999 0.012562 0.13763 8 0 255 0
0.17405 -0.013015 0.1355 8 0 255 0
0.20962 -0.0040952 0.1376 8 0 255 0
0.11579 -0.0076554 0.13602 1 255 0 0
0.033972 -0.0079518 0.1349 1 255 0 0
0.17421 -0.010209 0.13764 8 0 255 0
0.1303 -0.0053972 0.13552 1 255 0 0
0.20289 0.014681 0.13547 8 0 255 0
0.18621 -0.013062 0.13762 8 0 255 0
0.19198 -0.014135 0.13762 8 0 255 0
0.046122 -0.0025486 0.13452 1 255 0 0
0.069399 0.0030957 0.13526 1 255 0 0
0.04967 0.00091203 0.13834 1 255 0 0
0.18578 -0.0025837 0.13762 8 0 255 0
0.10412 0.00016885 0.13519 1 255 0 0
0.20619 0.0051438 0.13661 8 0 255 0
0.17884 0.017154 0.13763 8 0 255 0
0.19434 -0.010922 0.13548 8 0 255 0
-0.0020455 -0.0077491 0.13445 1 255 0 0
0.2182 -0.013103 0.1358 8 0 255 0
0.17658 0.0066913 0.1355 8 0 255 0
0.16384 -0.014308 0.13551 8 0 255 0
0.055555 0.0023971 0.13808 1 255 0 0
0.19157 0.0083326 0.13762 8 0 255 0
0.048447 -0.0022041 0.13453 1 255 0 0
0.026044 -0.0021424 0.13432 1 255 0 0
0.13477 -0.00090765 0.13541 1 255 0 0
0.18978 -0.0079671 0.13592 8 0 255 0
0.18535 -0.012779 0.13549 8 0 255 0
0.20596 0.01237 0.13547 8 0 255 0
-0.012384 -0.0090886 0.13753 1 255 0 0
0.099986 -0.00078647 0.13788 1 255 0 0
-0.0098094 0.0030783 0.13887 1 255 0 0
0.092974 0.0040921 0.13661 1 255 0 0
0.15584 4.2938e-05 0.13765 8 0 255 0
0.07001 -0.0096113 0.13697 1 255 0 0
0.18309 0.0022269 0.13763 8 0 255 0
0.17425 -0.0051901 0.1355 8 0 255 0
0.165 -0.0070977 0.13551 8 0 255 0
-0.010552 0.0016389 0.13415 1 255 0 0
0.18749 0.0053334 0.13549 8 0 255 0
0.23093 -0.017024 0.13758 8 0 255 0
-0.0056748 0.0070435 0.13796 1 255 0 0
0.0076991 -0.0051193 0.13427 1 255 0 0
0.22061 -0.018425 0.1355 8 0 255 0
0.074236 -0.0060867 0.13501 1 255 0 0
0.21079 0.013385 0.1376 8 0 255 0
0.20538 -0.010459 0.1376 8 0 255 0
0.17348 -0.015259 0.13764 8 0 255 0
0.11463 -0.0079167 0.13619 1 255 0 0
0.070052 -0.0010609 0.13823 1 255 0 0
0.19764 0.0059277 0.13761 8 0 255 0
0.20812 0.013966 0.13547 8 0 255 0
0.018848 -0.0069497 0.13455 1 255 0 0
0.1712 0.0092894 0.13764 8 0 255 0
0.017218 -0.0013276 0.13885 1 255 0 0
0.19588 -0.013393 0.13548 8 0 255 0
0.0088755 -0.0074959 0.1386 1 255 0 0
-0.0089866 0.0074156 0.13526 1 255 0 0
0.1787 -0.022022 0.1355 8 0 255 0
0.21299 -0.01237 0.1376 8 0 255 0
0.053222 -0.00029137 0.1384 1 255 0 0
0.072371 -0.0040876 0.13481 1 255 0 0
0.00023885 -0.011373 0.13537 1 255 0 0
0.020286 0.0074155 0.1362 1 255 0 0
0.17974 0.0089385 0.13763 8 0 255 0
0.17488 -0.018969 0.13764 8 0 255 0
0.044422 0.0039965 0.13795 1 255 0 0
0.0090278 -0.0058397 0.13878 1 255 0 0
0.10886 0.00039128 0.13766 1 255 0 0
0.21943 0.013029 0.13759 8 0 255 0
0.19435 0.013076 0.13761 8 0 255 0
0.16729 0.015437 0.13764 8 0 255 0
0.053696 -0.0025986 0.13845 1 255 0 0
0.10668 0.0034895 0.13651 1 255 0 0
0.0019058 0.0082156 0.13609 1 255 0 0
0.19344 0.014089 0.13761 8 0 255 0
0.21475 -0.013094 0.13546 8 0 255 0
0.055431 0.00069046 0.13829 1 255 0 0
0.063371 0.00034571 0.13823 1 255 0 0
0.1799 0.0030062 0.1355 8 0 255 0
0.019302 -0.010344 0.13532 1 255 0 0
0.040748 -0.0014044 0.13448 1 255 0 0
0.0092144 -0.010782 0.13531 1 255 0 0
0.11246 -0.0072049 0.13718 1 255 0 0
0.18586 -0.012083 0.13762 8 0 255 0
0.1821 -0.0038183 0.13763 8 0 255 0
0.02887 -0.0088059 0.1381 1 255 0 0
-0.0094403 -0.011507 0.13792 1 255 0 0
0.12134 0.002065 0.13708 1 255 0 0
0.14264 0.00018234 0.13721 8 0 255 0
0.10832 -0.0048549 0.13522 1 255 0 0
0.042264 -0.0074647 0.1349 1 255 0 0
0.20548 -0.0025429 0.1376 8 0 255 0
0.16047 0.0021243 0.13765 8 0 255 0
0.18837 0.0061717 0.13762 8 0 255 0
0.087139 0.0016543 0.13521 1 255 0 0
0.16932 0.0099711 0.13764 8 0 255 0
0.078367 -0.0076986 0.13761 1 255 0 0
0.16924 -0.018693 0.13551 8 0 255 0
0.053642 -0.003048 0.1346 1 255 0 0
0.11492 0.0014917 0.13738 1 255 0 0
0.17818 0.016378 0.13763 8 0 255 0
0.20595 -0.0044401 0.1376 8 0 255 0
-0.0029961 -0.0028084 0.13908 1 255 0 0
0.010879 -0.010487 0.13789 1 255 0 0
0.16654 0.0013297 0.13551 8 0 255 0
0.031727 0.00073378 0.13858 1 255 0 0
0.12329 -0.003822 0.13527 1 255 0 0
0.061268 -0.0059895 0.13487 1 255 0 0
0.12594 -0.0058245 0.13734 1 255 0 0
0.12999 -0.002382 0.13529 1 255 0 0
0.092181 0.003351 0.13723 1 255 0 0
0.029519 -0.011307 0.13615 1 255 0 0
0.19948 -0.0091493 0.13548 8 0 255 0
0.17816 0.0045817 0.1355 8 0 255 0
0.2075 -0.0099181 0.1376 8 0 255 0
0.20706 0.0010764 0.13567 8 0 255 0
0.1823 0.0045599 0.13763 8 0 255 0
0.18569 -0.00076917 0.13549 8 0 255 0
0.13096 -0.0014735 0.13755 1 255 0 0
0.20144 -0.015859 0.13647 8 0 255 0
0.18591 -0.018542 0.13549 8 0 255 0
-0.012336 0.0059751 0.1353 1 255 0 0
-0.01234 0.0049949 0.13501 1 255 0 0
0.13853 -0.0023121 0.13749 1 255 0 0
-0.0038216 0.0017393 0.13423 1 255 0 0
0.22562 -0.0026449 0.13758 8 0 255 0
0.2011 -0.018051 0.13761 8 0 255 0
0.12893 -0.0059581 0.13728 1 255 0 0
0.0048452 -0.0097264 0.13492 1 255 0 0
0.061111 -0.0093751 0.13733 1 255 0 0
0.10703 -0.0037434 0.13781 1 255 0 0
0.095936 0.0034034 0.13586 1 255 0 0
0.17992 0.003418 0.13763 8 0 255 0
0.18149 -0.020859 0.1355 8 0 255 0
0.19403 -0.012402 0.13548 8 0 255 0
0.015178 -0.0063717 0.13866 1 255 0 0
-0.0015377 0.0070313 0.13789 1 255 0 0
0.099857 -0.0073002 0.13737 1 255 0 0
0.091115 -0.0048118 0.13505 1 255 0 0
0.063051 -0.005548 0.13817 1 255 0 0
0.01863 0.0070037 0.13576 1 255 0 0
0.20964 0.0053716 0.13667 8 0 255 0
0.080916 -0.0084865 0.13566 1 255 0 0
0.077422 -0.0068342 0.13781 1 255 0 0
0.16268 0.0050376 0.13551 8 0 255 0
0.007459 0.0013598 0.13882 1 255 0 0
0.028496 -0.0029116 0.13872 1 255 0 0
0.10986 -0.0068949 0.13732 1 255 0 0
0.17942 -0.0053982 0.13763 8 0 255 0
0.23696 -0.011865 0.13602 8 0 255 0
0.17563 0.010671 0.1355 8 0 255 0
0.21353 -0.010661 0.1376 8 0 255 0
0.23153 0.012167 0.13738 8 0 255 0
0.07685 0.0023373 0.13521 1 255 0 0
0.18856 -0.015818 0.13549 8 0 255 0
0.005927 -0.0076691 0.13453 1 255 0 0
0.10379 -0.0039729 0.13784 1 255 0 0
-0.0060869 0.008255 0.13738 1 255 0 0
0.16168 -0.0051051 0.13765 8 0 255 0
0.20876 0.012168 0.1376 8 0 255 0
0.088671 -0.00361 0.13802 1 255 0 0
0.1683 -0.0030023 0.13764 8 0 255 0
0.18886 0.016223 0.13549 8 0 255 0
0.064094 -0.0029537 0.13832 1 255 0 0
0.18463 -0.020385 0.13763 8 0 255 0
0.031274 0.0049376 0.13518 1 255 0 0
0.015405 -0.005771 0.13441 1 255 0 0
0.16097 -0.013514 0.13765 8 0 255 0
0.039601 -0.0067173 0.13833 1 255 0 0
0.18238 0.017398 0.13549 8 0 255 0
0.11549 -0.004477 0.13525 1 255 0 0
0.21456 -0.0099668 0.13659 8 0 255 0
0.18011 -0.00035352 0.1355 8 0 255 0
-0.0099429 -0.0062375 0.13421 1 255 0 0
0.078595 -0.00050431 0.13487 1 255 0 0
0.1908 0.0028743 0.13687 8 0 255 0
0.17438 -0.0080941 0.13764 8 0 255 0
0.21847 -0.0018042 0.13759 8 0 255 0
0.058031 -0.00693 0.13805 1 255 0 0
0.15565 0.0053891 0.13636 8 0 255 0
0.029799 0.00010237 0.13866 1 255 0 0
-0.01239 -0.010561 0.13675 1 255 0 0
0.13266 -0.0073154 0.13641 1 255 0 0
0.022971 -0.0063229 0.13453 1 255 0 0
0.18564 0.017155 0.13654 8 0 255 0
0.066062 -0.0080837 0.13769 1 255 0 0
-0.010582 -0.0079109 0.13879 1 255 0 0
0.14176 0.00015029 0.13562 1 255 0 0
0.11275 0.00060808 0.13535 1 255 0 0
0.029451 -0.0092388 0.13513 1 255 0 0
-0.0007093 0.0042985 0.13856 1 255 0 0
0.21083 -0.010386 0.1376 8 0 255 0
0.041322 -0.0093229 0.13773 1 255 0 0
0.17752 -0.014712 0.13763 8 0 255 0
0.16849 -0.0059 0.13551 8 0 255 0
0.16435 4.3834e-05 0.13765 8 0 255 0
0.11647 -0.0041318 0.13523 1 255 0 0
0.20352 -0.0022138 0.13547 8 0 255 0
0.023867 -0.0054062 0.13865 1 255 0 0
0.1949 -0.011853 0.13548 8 0 255 0
2.8674e-05 0.0028582 0.13877 1 255 0 0
0.19719 -0.002099 0.13761 8 0 255 0
0.19563 -0.020498 0.13761 8 0 255 0
0.12956 0.0022047 0.13677 1 255 0 0
0.092716 0.0011675 0.1352 1 255 0 0
0.15284 -0.004665 0.13719 8 0 255 0
0.063775 -0.0063199 0.13808 1 255 0 0
0.22498 -0.011759 0.13758 8 0 255 0
0.17847 -0.0060748 0.13763 8 0 255 0
0.16901 -7.0334e-05 0.13764 8 0 255 0
0.018993 -0.0031498 0.13882 1 255 0 0
-0.0067233 0.0045258 0.1386 1 255 0 0
0.064877 0.0041212 0.13549 1 255 0 0
0.15825 -0.00010159 0.13765 8 0 255 0
-0.011306 0.0071884 0.13515 1 255 0 0
0.20909 -0.013704 0.1373 8 0 255 0
0.16672 0.016142 0.13551 8 0 255 0
0.18759 0.0086614 0.13762 8 0 255 0
0.2135 -0.0014644 0.13759 8 0 255 0
0.20937 -0.010176 0.13547 8 0 255 0
0.16655 -0.0080428 0.13551 8 0 255 0
0.18933 0.004773 0.13549 8 0 255 0
-0.0061483 -0.0069038 0.13431 1 255 0 0
0.17027 0.0080787 0.13551 8 0 255 0
0.068528 0.0042734 0.1356 1 255 0 0
0.17739 -0.013314 0.1355 8 0 255 0
0.045365 -0.010635 0.13608 1 255 0 0
0.1016 -0.0059744 0.1353 1 255 0 0
0.18089 0.0075046 0.13763 8 0 255 0
0.17763 0.013438 0.13763 8 0 255 0
0.053043 0.0040899 0.13529 1 255 0 0
0.18127 -0.00010138 0.13763 8 0 255 0
0.070744 0.0035438 0.13542 1 255 0 0
-0.0056275 0.0050787 0.13849 1 255 0 0
0.051482 -0.0050231 0.13468 1 255 0 0
0.10796 -0.00134 0.13781 1 255 0 0
0.073039 0.0027774 0.13776 1 255 0 0
0.2219 -0.0028332 0.13545 8 0 255 0
0.12575 -0.0056982 0.13552 1 255 0 0
0.12887 -0.0065082 0.13576 1 255 0 0
0.0080642 -0.00395 0.13892 1 255 0 0
0.16773 -0.014617 0.13551 8 0 255 0
-0.00044106 0.00090869 0.13897 1 255 0 0
0.20635 0.0011551 0.13758 8 0 255 0
0.17774 -0.0080537 0.13763 8 0 255 0
0.17846 0.015785 0.1355 8 0 255 0
0.17915 -0.00093729 0.1355 8 0 255 0
0.11297 0.0017032 0.13556 1 255 0 0
0.034918 -0.0035055 0.13445 1 255 0 0
0.12384 -0.0037526 0.13762 1 255 0 0
0.14416 -0.0055797 0.13714 8 0 255 0
0.1017 0.0013332 0.1376 1 255 0 0
0.16 0.0016953 0.13552 8 0 255 0
0.17096 0.014214 0.13764 8 0 255 0
0.19601 -0.00847 0.13673 8 0 255 0
0.080136 -0.0043471 0.13809 1 255 0 0
0.042254 0.0023984 0.13827 1 255 0 0
-0.0017442 -0.0012516 0.13409 1 255 0 0
0.19529 -0.019932 0.13548 8 0 255 0
0.095097 -0.0037945 0.13501 1 255 0 0
0.014331 -0.0077719 0.13848 1 255 0 0
0.071285 -0.0085944 0.13555 1 255 0 0
0.19964 -0.0011556 0.13761 8 0 255 0
0.090678 0.0021487 0.13535 1 255 0 0
0.12171 -0.0069834 0.13709 1 255 0 0
0.17269 0.01798 0.13698 8 0 255 0
-0.0031146 -0.012079 0.13747 1 255 0 0
0.076611 -0.0045074 0.13488 1 255 0 0
0.18222 -0.010199 0.1355 8 0 255 0
0.16001 -0.0048968 0.13552 8 0 255 0
0.0033544 -0.0042066 0.13897 1 255 0 0
0.002219 -0.0009705 0.13901 1 255 0 0
0.22332 0.0082532 0.13713 8 0 255 0
0.19596 0.015888 0.13761 8 0 255 0
0.072679 0.0048819 0.13606 1 255 0 0
0.22157 0.0124 0.13758 8 0 255 0
0.23117 -0.012247 0.13638 8 0 255 0
0.19723 0.0011585 0.13761 8 0 255 0
0.17819 -0.00059451 0.1355 8 0 255 0
0.13421 -0.00040197 0.13742 1 255 0 0
0.073096 -0.0017266 0.13822 1 255 0 0
0.11223 -0.0052462 0.1353 1 255 0 0
0.017405 0.0060058 0.13784 1 255 0 0
0.14586 -0.0053877 0.13569 1 255 0 0
0.2334 0.012207 0.1357 8 0 255 0
0.0070155 -0.00032632 0.13893 1 255 0 0
0.18771 -0.00072712 0.13762 8 0 255 0
0.12865 -0.0070173 0.13692 1 255 0 0
-0.012346 0.0029263 0.13541 1 255 0 0
0.16037 0.0097606 0.13552 8 0 255 0
0.19307 0.012746 0.13761 8 0 255 0
0.18731 -0.005709 0.13549 8 0 255 0
0.057019 0.0054343 0.13593 1 255 0 0
0.17088 -0.016029 0.13764 8 0 255 0
0.10612 -0.00033531 0.13776 1 255 0 0
0.15922 0.0094432 0.13552 8 0 255 0
0.047553 0.0036574 0.13508 1 255 0 0
0.060603 0.0044902 0.13749 1 255 0 0
0.20527 0.0094445 0.1376 8 0 255 0
-0.0022675 0.0077619 0.13754 1 255 0 0
0.064698 0.0030529 0.13783 1 255 0 0
0.0089758 0.0049134 0.13483 1 255 0 0
0.11748 -0.0061025 0.1374 1 255 0 0
0.15997 0.012215 0.1373 8 0 255 0
0.16298 0.014548 0.13699 8 0 255 0
0.21087 0.0091487 0.1355 8 0 255 0
0.0092205 0.0080357 0.13638 1 255 0 0
0.10602 -0.0037645 0.13782 1 255 0 0
0.10547 0.0016154 0.13749 1 255 0 0
0.21439 0.00026578 0.13572 8 0 255 0
0.18855 0.0012925 0.13549 8 0 255 0
0.1713 -0.011112 0.13551 8 0 255 0
-0.012359 -0.00091988 0.13564 1 255 0 0
-0.01234 0.0039703 0.13791 1 255 0 0
0.16964 0.0061048 0.13764 8 0 255 0
0.1624 -0.013463 0.13552 8 0 255 0
0.19209 -0.0055724 0.13762 8 0 255 0
0.1704 0.011197 0.13551 8 0 255 0
0.096398 -0.0074056 0.13556 1 255 0 0
0.046514 0.0060993 0.13701 1 255 0 0
0.19913 0.015498 0.13761 8 0 255 0
0.18492 -0.007492 0.13571 8 0 255 0
0.039482 0.0030255 0.1382 1 255 0 0
0.22407 0.013568 0.13557 8 0 255 0
0.017886 0.0019882 0.13863 1 255 0 0
0.15736 -0.0020898 0.13765 8 0 255 0
0.033918 -0.0054034 0.13853 1 255 0 0
0.19005 0.0094854 0.13548 8 0 255 0
-0.006811 -0.010454 0.13497 1 255 0 0
0.053105 -0.0082439 0.13786 1 255 0 0
0.2317 0.0068302 0.13713 8 0 255 0
0.17489 -0.0060626 0.1355 8 0 255 0
0.10218 -0.0045992 0.1378 1 255 0 0
0.016671 0.0033853 0.13847 1 255 0 0
0.20311 0.012959 0.13547 8 0 255 0
0.056176 -0.0063846 0.13486 1 255 0 0
-0.010623 -0.0018353 0.13918 1 255 0 0
0.18982 0.012434 0.13762 8 0 255 0
0.097372 -0.0086484 0.13626 1 255 0 0
0.033807 -0.0089945 0.13512 1 255 0 0
0.2007 0.013965 0.13761 8 0 255 0
0.081392 -0.0031091 0.13812 1 255 0 0
0.16537 0.015823 0.13764 8 0 255 0
0.016662 -0.003503 0.13884 1 255 0 0
0.22463 0.0081584 0.13598 8 0 255 0
0.09556 -0.0011907 0.13795 1 255 0 0
0.16291 -0.0001791 0.13765 8 0 255 0
0.1983 0.0046222 0.13562 8 0 255 0
0.17289 -0.012839 0.13551 8 0 255 0
0.0080625 0.0043566 0.13842 1 255 0 0
0.024737 0.00098983 0.13865 1 255 0 0
0.20985 0.014084 0.1376 8 0 255 0
0.16493 0.01272 0.13764 8 0 255 0
0.0036794 -0.0055893 0.13428 1 255 0 0
-0.0012186 0.0059551 0.13821 1 255 0 0
0.17635 -0.0052901 0.13763 8 0 255 0
0.17737 0.0030066 0.1355 8 0 255 0
0.14337 -0.00066286 0.13733 8 0 255 0
0.19452 -0.015648 0.1369 8 0 255 0
0.028699 -0.010077 0.13538 1 255 0 0
0.055137 0.0034887 0.13514 1 255 0 0
0.19638 -0.018211 0.13761 8 0 255 0
0.10913 0.001286 0.13542 1 255 0 0
0.21759 -0.010211 0.13564 8 0 255 0
0.0099607 -0.0075842 0.13857 1 255 0 0
0.18408 -0.0032133 0.13763 8 0 255 0
0.17246 0.0010401 0.1355 8 0 255 0
0.09832 -0.0081346 0.13707 1 255 0 0
0.0047966 0.0014004 0.13429 1 255 0 0
0.094591 -0.00081865 0.13795 1 255 0 0
