ply
format ascii 1.0
comment author Paulo Abelha (p.abelha at abdn ac uk)
element vertex 707
property float x
property float y
property float z
property int segm
property float nx
property float ny
property float nz
property uchar red
property uchar green
property uchar blue
end_header
-0.066814 -0.00093094 0.0012604 1 -0.0023292 0.080097 0.99678 255 0 0
-0.069395 0.0013821 0.0013014 1 0.012374 0.14144 0.98987 255 0 0
-0.06972 -0.0022539 0.0011824 1 0.0094745 0.19763 -0.98023 255 0 0
-0.068359 -0.0015049 0.0012364 1 0.015076 -0.14201 0.98975 255 0 0
-0.067114 -0.00022994 0.0012874 1 0.009327 0.12548 0.99205 255 0 0
-0.069154 -0.0018769 0.0012114 1 0.017663 0.39564 0.91824 255 0 0
-0.067672 -0.00077495 0.0012764 1 -0.00098052 0.0023205 -1 255 0 0
-0.070077 -0.00086095 -0.0013066 1 0.01223 0.001511 0.99992 255 0 0
-0.07063 0.00071005 0.0013334 1 0.0090946 0.087301 -0.99614 255 0 0
-0.066496 0.00074105 -0.0012916 1 0.0043792 0.0066689 0.99997 255 0 0
-0.063401 -0.0023869 0.0010714 1 0.01478 -0.068418 0.99755 255 0 0
-0.061426 -0.0011929 -0.0011906 1 -0.35774 -0.34786 0.86661 255 0 0
-0.06123 0.00014606 -0.0012446 1 0.023223 -0.21412 0.97653 255 0 0
-0.065909 -0.00036894 0.0012684 1 0.00097842 -0.002322 1 255 0 0
-0.061573 -0.0018509 0.0011064 1 -0.00098542 0.0023215 -1 255 0 0
-0.064871 0.0016781 -0.0012466 1 0.00098178 -0.0023151 1 255 0 0
-0.065878 0.0021791 -0.0012136 1 0.00098145 -0.0023282 1 255 0 0
-0.061764 -0.0019529 -0.0011236 1 0.011221 0.015561 0.99982 255 0 0
-0.065544 0.00062706 0.0012814 1 0.027692 -0.35023 -0.93625 255 0 0
-0.063063 0.0023061 0.0011744 1 -0.0080834 -0.45282 -0.89156 255 0 0
-0.062289 0.0014021 0.0012234 1 0.00098012 -0.0023178 1 255 0 0
-0.061867 0.0022611 -0.0011726 1 0.037913 -0.68838 0.72436 255 0 0
-0.062861 -0.0018799 -0.0011436 1 0.00097751 -0.0023194 1 255 0 0
-0.064232 -0.00028994 0.0012504 1 0.00098064 -0.0023189 1 255 0 0
-0.062767 -0.00082194 -0.0012336 1 0.00098054 -0.0023186 1 255 0 0
-0.064508 -0.00086094 -0.0012496 1 -0.00098052 0.0023205 -1 255 0 0
-0.064079 0.00036906 0.0012704 1 0.029169 -0.29561 0.95486 255 0 0
-0.065844 -0.0020439 0.0011474 1 0.00097733 -0.0023229 1 255 0 0
-0.063771 -0.0010919 -0.0012296 1 0.00097572 -0.0023217 1 255 0 0
-0.061157 -0.0012099 0.0011634 1 0.011071 0.091218 0.99577 255 0 0
-0.061663 -0.00044594 0.0012144 1 0.032014 -0.6995 0.71391 255 0 0
-0.063523 0.0011351 -0.0012526 1 -0.0034691 0.013715 0.9999 255 0 0
-0.062911 -0.00064194 0.0012234 1 0.0089156 0.040176 -0.99915 255 0 0
-0.061821 0.0018941 0.0012004 1 0.0092458 0.16314 -0.98656 255 0 0
-0.0658 0.00064305 -0.0012886 1 -0.00098052 0.0023205 -1 255 0 0
-0.062721 0.0012611 -0.0012406 1 0.27409 -0.83215 0.48207 255 0 0
-0.06331 3.4053e-05 0.0012504 1 0.010635 -0.10696 -0.99421 255 0 0
-0.064565 -0.0019699 -0.0011556 1 0.012674 -0.0077705 0.99989 255 0 0
-0.063862 -0.00035694 -0.0012576 1 0.013188 0.29228 0.95624 255 0 0
-0.063213 -0.00019594 -0.0012556 1 0.0088154 0.071974 -0.99737 255 0 0
-0.062288 -0.00013094 0.0012324 1 0.00098391 -0.0023228 1 255 0 0
-0.063108 0.00057706 -0.0012666 1 0.0093625 0.097326 0.99521 255 0 0
-0.061807 -0.00029294 -0.0012386 1 0.0087879 0.093981 -0.99554 255 0 0
-0.065468 0.0015141 0.0012544 1 -0.71819 -0.36248 -0.59397 255 0 0
-0.064171 -0.0020249 0.0011254 1 0.021577 -0.51909 0.85445 255 0 0
-0.062069 0.00059306 -0.0012576 1 0.0080312 -0.012469 0.99989 255 0 0
-0.062512 -0.00018594 -0.0012486 1 0.010204 0.094362 0.99549 255 0 0
-0.064921 -0.0016879 0.0011694 1 0.0081023 0.034718 -0.99936 255 0 0
-0.064845 -7.9465e-06 0.0012674 1 -0.083248 0.78989 0.60758 255 0 0
-0.063659 0.0015551 0.0012344 1 -0.00098141 0.0023219 -1 255 0 0
-0.064888 0.00015706 -0.0012826 1 -0.00098037 0.0023217 -1 255 0 0
-0.065245 -0.0021699 -0.0011456 1 0.017918 -0.16491 0.98615 255 0 0
-0.062628 -0.0025099 0.0010354 1 0.17522 -0.62035 -0.7645 255 0 0
-0.064574 0.0022961 0.0011904 1 0.008117 0.041914 0.99909 255 0 0
-0.06232 -0.0010659 0.0011944 1 0.00097962 -0.0023185 1 255 0 0
-0.0641 0.0019551 -0.0012216 1 0.00098317 -0.0023262 1 255 0 0
-0.064113 -0.0010399 0.0012224 1 0.0089682 0.23091 -0.97293 255 0 0
-0.064505 0.0012491 0.0012524 1 0.017075 -0.07912 0.99672 255 0 0
-0.061611 0.0012801 -0.0012306 1 0.0070645 -0.011982 -0.9999 255 0 0
-0.064127 0.00053606 -0.0012776 1 0.04264 -0.42985 -0.90189 255 0 0
-0.065085 -0.0012339 -0.0012316 1 0.15001 -0.067166 -0.9864 255 0 0
-0.065363 -0.00086294 0.0012454 1 0.00098343 -0.0023189 1 255 0 0
-0.063349 -0.0017049 0.0011454 1 0.00098371 -0.0023212 1 255 0 0
-0.062273 -0.0017889 0.0011224 1 0.16521 -0.49378 -0.85375 255 0 0
-0.062167 -0.0013419 -0.0011856 1 0.0073303 0.023758 -0.99969 255 0 0
-0.065291 -0.00051394 -0.0012676 1 0.033202 0.85747 0.51346 255 0 0
-0.064995 0.0023611 -0.0011886 1 0.00097555 -0.0023167 1 255 0 0
-0.065065 0.00093406 -0.0012726 1 0.01135 0.12032 0.99267 255 0 0
-0.061825 0.00076906 0.0012364 1 0.010302 -0.06489 0.99784 255 0 0
-0.063019 0.00095906 0.0012444 1 0.01485 -0.15594 -0.98766 255 0 0
-0.063796 -0.0020229 -0.0011416 1 0.0068595 0.11848 -0.99293 255 0 0
-0.062368 -0.0024079 -0.0010746 1 -0.027024 0.98747 -0.15545 255 0 0
-0.065544 0.0015191 -0.0012576 1 -0.00098052 0.0023205 -1 255 0 0
-0.064273 0.0012831 -0.0012536 1 -0.00098398 0.0023186 -1 255 0 0
-0.062532 0.0019111 -0.0012126 1 -0.00098052 0.0023205 -1 255 0 0
-0.061332 0.00030006 0.0012354 1 0.011744 -0.072814 -0.99728 255 0 0
-0.063893 0.0022341 0.0011894 1 0.0043519 -0.00011952 -0.99999 255 0 0
-0.061099 0.0015741 0.0012054 1 -0.00098052 0.0023205 -1 255 0 0
-0.056956 -0.0012669 -0.0011296 1 0.012935 -0.015566 -0.9998 255 0 0
-0.057744 0.00024006 0.0011904 1 -0.00098052 0.0023205 -1 255 0 0
-0.058678 0.0017741 -0.0011876 1 0.011749 -0.067672 0.99764 255 0 0
-0.058888 0.0011661 0.0011934 1 0.00098056 -0.0023222 1 255 0 0
-0.056607 -0.00034394 -0.0011846 1 0.0085819 0.33745 0.94131 255 0 0
-0.060655 0.0021521 0.0011644 1 0.1951 -0.43894 -0.87708 255 0 0
-0.057393 0.00058306 -0.0012166 1 0.026751 0.46524 -0.88478 255 0 0
-0.057617 -0.0018219 -0.0010846 1 -0.00098142 0.0023162 -1 255 0 0
-0.056146 0.00098506 -0.0011916 1 -0.00097986 0.002318 -1 255 0 0
-0.059813 0.00040406 -0.0012376 1 0.011638 0.056059 -0.99836 255 0 0
-0.06099 0.0017071 -0.0012106 1 0.00097894 -0.0023253 1 255 0 0
-0.059714 -0.0019909 0.0010664 1 0.00097616 -0.0023239 1 255 0 0
-0.056726 -0.0026209 -0.00094858 1 -0.00097985 0.0023174 -1 255 0 0
-0.060675 -0.00027594 0.0012084 1 0.00098043 -0.0023202 1 255 0 0
-0.058165 8.6056e-05 -0.0012126 1 0.0095435 0.10362 -0.99457 255 0 0
-0.059594 -0.00022994 0.0011964 1 -0.082849 -0.97396 -0.21105 255 0 0
-0.060896 0.00086706 0.0012244 1 0.019629 -0.29036 0.95672 255 0 0
-0.057186 -0.0017539 0.0010534 1 0.015794 -0.19947 0.97978 255 0 0
-0.059346 0.0015601 -0.0012006 1 0.006508 0.14364 0.98961 255 0 0
-0.056758 0.0016691 0.0011564 1 -0.00098052 0.0023205 -1 255 0 0
-0.060822 -0.00083194 -0.0012136 1 0.016381 -0.15641 0.98756 255 0 0
-0.058904 -0.00013594 0.0011914 1 0.00097799 -0.0023208 1 255 0 0
-0.060993 -0.0022609 -0.0010786 1 0.0009774 -0.0023188 1 255 0 0
-0.059251 0.00076906 -0.0012266 1 0.00098226 -0.002321 1 255 0 0
-0.060553 -0.0019729 0.0010794 1 0.016713 -0.20196 0.97925 255 0 0
-0.056621 0.00087106 0.0011774 1 -0.00098049 0.0023227 -1 255 0 0
-0.058865 -0.0014389 0.0011084 1 0.014525 0.19254 -0.98118 255 0 0
-0.057618 -0.00087694 0.0011464 1 -0.99979 -0.020305 0.0009332 255 0 0
-0.057714 0.0022551 0.0011244 1 -0.00098052 0.0023205 -1 255 0 0
-0.058825 -0.0023329 0.0010004 1 0.00098174 -0.0023214 1 255 0 0
-0.056404 -0.00036594 0.0011534 1 0.0029448 0.48931 -0.8721 255 0 0
-0.056795 0.0016351 -0.0011756 1 0.00098009 -0.0023214 1 255 0 0
-0.058288 0.00073706 0.0011994 1 0.053011 -0.99263 0.10901 255 0 0
-0.057948 -0.0011469 -0.0011526 1 0.0023485 -0.0067265 0.99997 255 0 0
-0.057475 0.0014431 -0.0011886 1 0.040731 -0.062881 0.99719 255 0 0
-0.05931 -0.00040294 -0.0012106 1 0.019337 0.26835 0.96313 255 0 0
-0.056742 -0.0019359 -0.0010636 1 0.0073883 -0.0026559 -0.99997 255 0 0
-0.059706 -0.0017499 -0.0011176 1 0.00080266 0.47169 -0.88177 255 0 0
-0.05668 0.00045106 -0.0012076 1 -0.00098052 0.0023205 -1 255 0 0
-0.057757 0.0022841 -0.0011356 1 0.014456 -0.020964 0.99968 255 0 0
-0.058675 -0.0011939 -0.0011576 1 0.0009788 -0.0023152 1 255 0 0
-0.059763 0.0021871 -0.0011626 1 0.014569 0.12724 0.99177 255 0 0
-0.058029 -0.0019539 0.0010454 1 0.011093 0.14021 0.99006 255 0 0
-0.060557 7.1055e-05 -0.0012366 1 -0.00098052 0.0023205 -1 255 0 0
-0.057593 -0.00039094 -0.0011936 1 0.015278 -0.16259 0.98657 255 0 0
-0.057286 0.0012221 0.0011744 1 0.00097959 -0.0023192 1 255 0 0
-0.058966 -0.0021929 -0.0010596 1 -0.00098052 0.0023205 -1 255 0 0
-0.056929 0.0023671 -0.0011206 1 0.012444 0.083547 0.99643 255 0 0
-0.05951 0.00078606 0.0012114 1 -0.00098052 0.0023205 -1 255 0 0
-0.056308 -0.0020049 0.0010154 1 0.01263 0.017393 -0.99977 255 0 0
-0.058585 -0.00044694 -0.0012016 1 0.014165 -0.085784 0.99621 255 0 0
-0.058173 -0.0013009 0.0011124 1 0.00098052 -0.0023205 1 255 0 0
-0.060853 0.00083806 -0.0012386 1 -0.00097997 0.0023201 -1 255 0 0
-0.05822 -0.0021569 -0.0010536 1 0.020011 -0.22981 0.97303 255 0 0
-0.058113 0.0015781 0.0011734 1 0.00098663 -0.0023198 1 255 0 0
-0.058663 0.0019641 0.0011614 1 0.009909 0.074558 -0.99717 255 0 0
-0.060126 -0.00095494 -0.0011976 1 0.065181 -0.71117 -0.69999 255 0 0
-0.059891 0.0016971 0.0011894 1 0.00098208 -0.0023217 1 255 0 0
-0.056182 0.0022101 -0.0011306 1 0.20069 -0.97598 0.084779 255 0 0
-0.056339 -0.0010879 0.0011074 1 0.019499 -0.041642 -0.99894 255 0 0
-0.060197 0.0010121 -0.0012266 1 0.011215 -0.017765 0.99978 255 0 0
-0.058211 -0.00052894 0.0011704 1 -0.0009796 0.0023162 -1 255 0 0
-0.057159 -0.00033694 0.0011634 1 -0.033074 -0.6189 0.78478 255 0 0
-0.058209 0.0010411 -0.0012086 1 -0.00098052 0.0023205 -1 255 0 0
-0.060413 -0.0012589 0.0011484 1 -0.00098052 0.0023205 -1 255 0 0
-0.059651 -0.0011039 0.0011524 1 0.055571 -0.85753 -0.51142 255 0 0
-0.059361 0.0021541 0.0011504 1 -0.00098052 0.0023205 -1 255 0 0
-0.060155 0.00038406 0.0012234 1 0.0099892 0.024601 0.99965 255 0 0
-0.056757 0.0023351 0.0011074 1 0.066992 -0.30092 0.95129 255 0 0
-0.060356 -0.0019199 -0.0011096 1 0.03671 -0.51441 -0.85676 255 0 0
-0.058908 0.00016006 -0.0012216 1 0.015766 -0.03335 0.99932 255 0 0
-0.056163 -0.0015479 -0.0010936 1 -0.00097847 0.0023216 -1 255 0 0
-0.051324 -0.0017209 -0.0010176 1 -0.024113 0.084121 -0.99616 255 0 0
-0.05171 -0.00034694 -0.0011346 1 0.014912 0.27202 -0.96217 255 0 0
-0.053738 -0.00087594 -0.0011266 1 -0.00098249 0.0023208 -1 255 0 0
-0.052366 0.0023511 -0.0010846 1 0.00098093 -0.0023245 1 255 0 0
-0.054824 0.0018991 0.0011284 1 0.026928 -0.42761 -0.90356 255 0 0
-0.051091 -0.00088094 0.0010534 1 -0.00098052 0.0023205 -1 255 0 0
-0.055889 -0.00087494 -0.0011536 1 0.0009764 -0.0023227 1 255 0 0
-0.052033 -0.00027894 0.0011034 1 0.00098355 -0.0023203 1 255 0 0
-0.051213 0.00054606 0.0011214 1 0.0090196 0.032566 -0.99943 255 0 0
-0.054263 -0.0011259 0.0010744 1 0.0009784 -0.0023149 1 255 0 0
-0.05204 0.0014841 -0.0011386 1 -0.00098052 0.0023205 -1 255 0 0
-0.053759 -0.0020469 0.00096242 1 0.0086517 0.1252 0.99209 255 0 0
-0.051499 0.00046606 -0.0011556 1 0.0099903 0.37473 -0.92708 255 0 0
-0.05459 -0.0021019 0.00096742 1 -0.00097748 0.0023196 -1 255 0 0
-0.053824 0.00012906 -0.0011696 1 0.0090788 0.10256 0.99469 255 0 0
-0.052417 -0.0022049 -0.00095358 1 0.0092989 -0.15298 0.98819 255 0 0
-0.054812 4.0054e-05 0.0011484 1 0.011366 -0.4265 -0.90442 255 0 0
-0.055975 0.0018261 0.0011434 1 -0.0042397 0.94314 -0.33236 255 0 0
-0.053785 0.00029406 0.0011444 1 0.00097995 -0.0023231 1 255 0 0
-0.05303 -0.0016929 0.0010004 1 0.013364 0.0003959 0.99991 255 0 0
-0.054863 0.00082506 -0.0011856 1 0.040461 -0.72449 -0.6881 255 0 0
-0.053744 0.0010581 0.0011414 1 0.013376 0.35131 0.93616 255 0 0
-0.055919 0.0011241 0.0011624 1 0.00098111 -0.0023152 1 255 0 0
-0.052894 0.00051906 0.0011404 1 -0.025089 -0.012778 0.9996 255 0 0
-0.05571 -0.00014194 0.0011524 1 0.027479 -0.31511 -0.94866 255 0 0
-0.055647 0.0015711 -0.0011676 1 -0.00098115 0.002318 -1 255 0 0
-0.052092 0.0015501 0.0011094 1 0.00015914 0.28487 0.95857 255 0 0
-0.053663 0.0017921 -0.0011426 1 0.00097402 -0.0023202 1 255 0 0
-0.055892 -4.4944e-05 -0.0011856 1 0.012893 0.079459 0.99675 255 0 0
-0.054491 0.00085606 0.0011544 1 0.030098 -0.21127 0.97696 255 0 0
-0.05158 0.0011071 0.0011164 1 0.00097671 -0.0023168 1 255 0 0
-0.055121 -0.0010469 -0.0011276 1 -0.00097903 0.0023203 -1 255 0 0
-0.055834 -0.0021879 -0.0010106 1 0.016208 -0.12615 0.99188 255 0 0
-0.054218 -0.0016499 -0.0010596 1 0.027342 -0.33982 0.94009 255 0 0
-0.052114 -0.0014439 -0.0010536 1 -0.00098052 0.0023205 -1 255 0 0
-0.052758 -0.00023294 -0.0011486 1 0.0079955 0.58033 0.81434 255 0 0
-0.055673 -0.0013149 0.0010754 1 0.0058822 0.052454 -0.99861 255 0 0
-0.051319 -0.0019299 0.00094042 1 0.008782 0.0060311 0.99994 255 0 0
-0.052105 0.00062606 0.0011344 1 0.0078037 -0.058672 0.99825 255 0 0
-0.055091 -0.00025594 -0.0011716 1 0.019339 0.52066 -0.85354 255 0 0
-0.054415 -0.00042094 -0.0011606 1 0.00098196 -0.0023189 1 255 0 0
-0.053144 0.00046006 -0.0011726 1 0.014347 -0.13199 -0.99115 255 0 0
-0.055542 0.00061206 -0.0011986 1 0.081721 -0.448 0.89029 255 0 0
-0.05306 0.0014061 0.0011234 1 0.019554 -0.17825 0.98379 255 0 0
-0.051337 -0.0010129 -0.0010846 1 0.00097828 -0.0023223 1 255 0 0
-0.052292 -0.00099794 0.0010594 1 -0.00098052 0.0023205 -1 255 0 0
-0.052181 0.0023711 0.0010564 1 -0.00098052 0.0023205 -1 255 0 0
-0.055111 -0.0023849 -0.00096458 1 0.0096813 0.23609 0.97168 255 0 0
-0.055364 -0.0022909 0.00094642 1 -0.02771 -0.5742 -0.81825 255 0 0
-0.053416 -0.0017149 -0.0010436 1 0.028607 0.50258 0.86406 255 0 0
-0.052298 -0.0017969 0.00098042 1 0.014015 -0.15477 -0.98785 255 0 0
-0.051672 0.0021681 -0.0010966 1 0.010661 0.097075 -0.99522 255 0 0
-0.053858 0.0010771 -0.0011686 1 -0.00098052 0.0023205 -1 255 0 0
-0.055359 -0.0016999 -0.0010686 1 0.00098302 -0.0023143 1 255 0 0
-0.05278 -0.00097594 -0.0011056 1 -0.0009802 0.0023186 -1 255 0 0
-0.05516 0.00099806 0.0011584 1 0.00097922 -0.0023289 1 255 0 0
-0.051174 -0.00018794 0.0010964 1 0.012705 0.0042912 0.99991 255 0 0
-0.053468 -0.00037594 0.0011184 1 0.054659 -0.7393 0.67116 255 0 0
-0.054238 0.0015271 0.0011324 1 0.00098027 -0.0023199 1 255 0 0
-0.052407 0.00035706 -0.0011616 1 0.012989 0.080325 0.99668 255 0 0
-0.054315 0.0016111 -0.0011546 1 0.1052 -0.30716 -0.94583 255 0 0
-0.055041 0.0018691 -0.0011526 1 -0.01391 0.026545 0.99955 255 0 0
-0.052983 -0.00098294 0.0010704 1 0.00098168 -0.0023215 1 255 0 0
-0.053571 0.0018471 0.0011164 1 0.010823 0.028773 0.99953 255 0 0
-0.052726 0.0017171 -0.0011366 1 0.030727 -0.46764 -0.88339 255 0 0
-0.052846 0.0020901 0.0010904 1 -0.019576 -0.45914 -0.88815 255 0 0
-0.052192 -0.0024829 0.00085542 1 0.010475 0.15183 -0.98835 255 0 0
-0.05499 -0.0010189 0.0010954 1 0.00097617 -0.0023196 1 255 0 0
-0.051703 -0.0013209 0.0010184 1 0.014683 -0.075916 0.99701 255 0 0
-0.053138 0.0011731 -0.0011586 1 0.00098195 -0.0023178 1 255 0 0
-0.054246 -0.00042094 0.0011254 1 0.049657 0.7081 0.70436 255 0 0
-0.048629 0.0022741 -0.0010616 1 0.011188 0.054145 0.99847 255 0 0
-0.046525 -0.0021359 0.00081842 1 0.0009813 -0.0023162 1 255 0 0
-0.04733 0.00030306 -0.0011086 1 0.0009859 -0.0023226 1 255 0 0
-0.04734 0.0018241 0.0010494 1 0.0172 -0.20481 0.97865 255 0 0
-0.050444 0.00068106 -0.0011506 1 0.01039 0.0046336 0.99994 255 0 0
-0.048129 -0.0022879 0.00081942 1 0.017084 0.62984 -0.77654 255 0 0
-0.048412 -0.0014319 0.00096142 1 -0.00097854 0.0023175 -1 255 0 0
-0.047751 -0.0021279 -0.00089358 1 -0.022859 0.096701 0.99505 255 0 0
-0.050949 0.0019061 0.0010864 1 0.010314 0.069253 0.99755 255 0 0
-0.050335 0.0020071 -0.0011016 1 -0.00098052 0.0023205 -1 255 0 0
-0.049858 -0.00088394 0.0010354 1 -0.00098052 0.0023205 -1 255 0 0
-0.051011 0.0016511 -0.0011236 1 0.013578 -0.13018 -0.9914 255 0 0
-0.046575 1.3057e-05 -0.0010936 1 0.0009756 -0.0023194 1 255 0 0
-0.05013 0.00050506 0.0011064 1 0.00098558 -0.0023233 1 255 0 0
-0.049774 0.00082106 -0.0011406 1 0.016059 -0.16433 -0.98627 255 0 0
-0.046311 0.00099306 -0.0011046 1 0.017208 -0.17809 -0.98386 255 0 0
-0.047434 -0.0012959 -0.0010106 1 0.013282 -0.15007 -0.98859 255 0 0
-0.046592 0.0023201 0.0010044 1 0.017852 -0.1672 -0.98576 255 0 0
-0.049643 -0.00012294 0.0010804 1 0.010111 0.17813 -0.98395 255 0 0
-0.047299 -0.0016559 0.00091942 1 0.010944 0.030722 0.99947 255 0 0
-0.050462 -0.0019799 -0.00096258 1 0.0099103 0.1881 0.9821 255 0 0
-0.046661 -0.0012809 0.00095142 1 0.010599 -0.01388 0.99985 255 0 0
-0.049664 -0.0012439 -0.0010426 1 0.002074 0.8026 -0.59651 255 0 0
-0.048009 0.0019671 -0.0010866 1 -0.0293 0.98408 -0.17532 255 0 0
-0.049209 -0.0023039 -0.00088558 1 0.00098052 -0.0023205 1 255 0 0
-0.04816 0.0014301 0.0010694 1 -0.00098353 0.0023238 -1 255 0 0
-0.050867 -0.0025579 -0.00086658 1 -0.17013 -0.8923 0.41816 255 0 0
-0.050651 -0.00069994 -0.0011056 1 0.010319 0.10219 -0.99471 255 0 0
-0.049338 0.0019131 0.0010684 1 0.020154 0.33029 0.94366 255 0 0
-0.049213 0.0013661 -0.0011176 1 0.008656 -0.021188 -0.99974 255 0 0
-0.049056 -0.0022609 0.00084042 1 0.00097909 -0.002317 1 255 0 0
-0.048307 0.00028306 0.0010774 1 0.010958 0.12833 -0.99167 255 0 0
-0.046889 -0.0021449 -0.00087758 1 -0.00098146 0.0023217 -1 255 0 0
-0.047661 -0.00039994 0.0010474 1 0.016911 -0.16069 -0.98686 255 0 0
-0.050403 -0.0024579 0.00082842 1 0.093929 -0.23555 0.96731 255 0 0
-0.046088 -0.00095294 -0.0010266 1 -0.00098052 0.0023205 -1 255 0 0
-0.046286 0.0010991 0.0010594 1 0.010155 0.68273 0.7306 255 0 0
-0.046446 -1.8945e-05 0.0010454 1 -0.15269 -0.90419 -0.39892 255 0 0
-0.050413 -0.0012779 0.0010044 1 0.017758 0.44399 0.89585 255 0 0
-0.050943 -5.4944e-05 -0.0011356 1 0.02348 -0.32153 0.94661 255 0 0
-0.04779 -0.0010859 0.00098642 1 0.0050726 0.3552 -0.93478 255 0 0
-0.050298 0.0013341 -0.0011286 1 -0.67618 0.41808 -0.60663 255 0 0
-0.048939 0.00032006 -0.0011256 1 0.015541 -0.50434 -0.86336 255 0 0
-0.049453 0.00071006 0.0011044 1 -0.00098052 0.0023205 -1 255 0 0
-0.050421 0.0014021 0.0010954 1 0.020687 -0.34317 -0.93905 255 0 0
-0.048663 -0.00062994 0.0010444 1 0.00097978 -0.0023202 1 255 0 0
-0.046245 -0.0018489 -0.00091958 1 0.00097885 -0.0023218 1 255 0 0
-0.048954 0.0012171 0.0010844 1 -0.00098324 0.0023211 -1 255 0 0
-0.049195 -0.0010399 0.0010104 1 0.036727 -0.49747 0.86671 255 0 0
-0.048175 -2.2943e-05 -0.0011086 1 -0.00098052 0.0023209 -1 255 0 0
-0.049148 -0.00038894 -0.0011076 1 0.00098027 -0.0023161 1 255 0 0
-0.047802 0.0012021 -0.0011106 1 0.016988 -0.15132 0.98834 255 0 0
-0.047018 -0.00065594 -0.0010656 1 0.012503 -0.033915 0.99935 255 0 0
-0.046033 -0.00095494 0.00097442 1 -0.00098052 0.0023205 -1 255 0 0
-0.046884 0.0020471 -0.0010696 1 -0.00098235 0.0023238 -1 255 0 0
-0.048907 -0.0011189 -0.0010446 1 0.00098156 -0.0023159 1 255 0 0
-0.04704 0.00093506 -0.0011126 1 0.017119 -0.15171 0.98828 255 0 0
-0.048632 0.0021901 0.0010374 1 0.012705 -0.053149 -0.99851 255 0 0
-0.04898 6.8055e-05 0.0010784 1 -0.00098052 0.0023205 -1 255 0 0
-0.048551 0.0010931 -0.0011206 1 -0.00098052 0.0023205 -1 255 0 0
-0.049965 0.00014406 -0.0011316 1 0.0066815 0.18364 -0.98297 255 0 0
-0.047019 0.00041606 0.0010664 1 0.00097804 -0.0023185 1 255 0 0
-0.048473 -0.0022329 -0.00088658 1 0.017437 -0.13674 -0.99045 255 0 0
-0.050366 -0.00032994 0.0010824 1 0.0088623 0.033172 -0.99941 255 0 0
-0.046063 0.0023431 -0.0010326 1 0.013856 -0.10832 0.99402 255 0 0
-0.048246 -0.0015899 -0.00099258 1 0.011401 0.024898 0.99962 255 0 0
-0.048063 -0.00092294 -0.0010536 1 -0.00098052 0.0023205 -1 255 0 0
-0.050368 0.0022531 0.0010494 1 0.057645 -0.60353 -0.79525 255 0 0
-0.047099 0.0010871 0.0010684 1 0.00097893 -0.0023166 1 255 0 0
-0.050006 -0.0018659 0.00092942 1 0.000984 -0.0023225 1 255 0 0
-0.046717 -0.0013489 -0.00099658 1 -0.00097784 0.0023259 -1 255 0 0
-0.045436 0.0017361 -0.0010716 1 -0.00098052 0.0023205 -1 255 0 0
-0.045136 0.0016701 0.0010304 1 0.010591 0.0070491 -0.99992 255 0 0
-0.042914 -0.00070394 0.00095542 1 -0.0021042 -0.0040443 -0.99999 255 0 0
-0.042035 -0.0013389 -0.00094058 1 0.00098039 -0.0023183 1 255 0 0
-0.043183 -0.0010859 -0.00097758 1 0.014503 -0.013285 0.99981 255 0 0
-0.045581 -0.00033894 0.0010234 1 0.055182 -0.68688 0.72467 255 0 0
-0.044138 -0.0023879 0.00073042 1 0.0055524 0.18225 -0.98324 255 0 0
-0.043706 0.00036606 -0.0010736 1 0.055784 0.99121 0.11995 255 0 0
-0.044919 -0.00058494 -0.0010466 1 0.00098031 -0.0023183 1 255 0 0
-0.043431 -0.0025659 0.00066242 1 0.0071674 -0.027296 0.9996 255 0 0
-0.044613 3.4055e-05 0.0010244 1 -0.0009799 0.0023167 -1 255 0 0
-0.044018 -0.00030394 0.0010064 1 -0.00098052 0.0023205 -1 255 0 0
-0.041852 -0.0025799 0.00061942 1 0.00098172 -0.0023169 1 255 0 0
-0.043408 -0.0019409 -0.00085858 1 -0.00098052 0.0023205 -1 255 0 0
-0.041306 0.00086206 -0.0010636 1 -0.00098005 0.0023199 -1 255 0 0
-0.041757 0.0018291 -0.0010356 1 0.016301 -0.15931 0.98709 255 0 0
-0.042201 0.00052806 0.0010114 1 0.016911 -0.29174 0.95635 255 0 0
-0.042948 -0.0019289 0.00079242 1 0.023933 -0.18166 0.98307 255 0 0
-0.0458 -0.0021979 0.00079442 1 0.013444 -0.10587 0.99429 255 0 0
-0.041869 -0.00067594 0.00094242 1 -0.00098051 0.0023212 -1 255 0 0
-0.041332 3.1056e-05 -0.0010406 1 -0.00098374 0.0023235 -1 255 0 0
-0.041813 -0.0018489 0.00078642 1 -0.00098052 0.0023205 -1 255 0 0
-0.045296 0.0023451 0.00098843 1 0.0083464 0.36583 -0.93064 255 0 0
-0.04405 0.0018951 0.0010124 1 0.00097959 -0.0023177 1 255 0 0
-0.044794 0.0019391 -0.0010596 1 0.00098012 -0.0023156 1 255 0 0
-0.042586 -0.0026219 0.00062442 1 0.019163 -0.16495 0.98612 255 0 0
-0.044046 -0.0010579 0.00093642 1 0.013121 0.22471 0.97434 255 0 0
-0.045799 0.00029706 -0.0010936 1 0.015818 -0.83498 -0.55005 255 0 0
-0.042506 -0.0018579 -0.00085958 1 0.011152 0.13669 0.99055 255 0 0
-0.042871 0.00057006 0.0010214 1 0.0041859 0.65626 -0.75453 255 0 0
-0.042426 -0.0014979 0.00086142 1 0.00098245 -0.002319 1 255 0 0
-0.043287 0.0021441 -0.0010296 1 0.00097995 -0.0023212 1 255 0 0
-0.043171 -3.1945e-05 0.0010054 1 0.052707 -0.94972 -0.30863 255 0 0
-0.045487 -0.0015049 0.00091242 1 0.00098163 -0.0023215 1 255 0 0
-0.043837 -0.00033794 -0.0010556 1 0.00098246 -0.0023195 1 255 0 0
-0.042702 -0.00038994 -0.0010376 1 0.015525 0.55421 0.83223 255 0 0
-0.041476 0.0017131 0.00098943 1 0.00098471 -0.0023217 1 255 0 0
-0.044768 -0.0015599 -0.00094758 1 0.00098117 -0.0023147 1 255 0 0
-0.042465 -9.0945e-05 0.00099442 1 0.010525 0.1132 0.99352 255 0 0
-0.041514 -0.0018779 -0.00083958 1 0.030965 -0.43048 -0.90207 255 0 0
-0.041312 -0.0011349 0.00088942 1 0.00097727 -0.0023241 1 255 0 0
-0.044675 0.00081606 -0.0010956 1 -0.10388 0.41773 -0.90262 255 0 0
-0.043206 -0.0013219 0.00089842 1 0.00097732 -0.002326 1 255 0 0
-0.045862 0.00035906 0.0010504 1 0.012913 0.055744 -0.99836 255 0 0
-0.045369 0.00085106 -0.0011006 1 0.022001 -0.22376 -0.9744 255 0 0
-0.044404 -0.0025749 -0.00074458 1 0.00098344 -0.0023168 1 255 0 0
-0.044026 0.0017781 -0.0010576 1 -0.0009799 0.0023169 -1 255 0 0
-0.04445 0.0011531 0.0010374 1 -0.010784 0.60896 0.79313 255 0 0
-0.045588 -0.00047494 -0.0010656 1 -0.000975 0.0023239 -1 255 0 0
-0.042246 0.0012051 -0.0010616 1 0.0070506 -0.9992 0.039301 255 0 0
-0.041962 -0.00032794 -0.0010346 1 0.033746 0.63917 -0.76832 255 0 0
-0.04542 -0.0018039 -0.00091458 1 0.010051 0.15723 0.98751 255 0 0
-0.043645 0.00082606 0.0010384 1 0.012447 0.10947 0.99391 255 0 0
-0.042396 -0.0025079 -0.00071958 1 0.022381 -0.033971 -0.99917 255 0 0
-0.0441 -0.00097394 -0.00099958 1 -0.10687 -0.59215 0.79871 255 0 0
-0.044846 -0.0012309 0.00093042 1 -0.097562 -0.025096 0.99491 255 0 0
-0.044848 -0.0020499 0.00080442 1 0.00098052 -0.0023205 1 255 0 0
-0.04519 0.00099106 0.0010504 1 0.017552 -0.14678 -0.98901 255 0 0
-0.044535 0.00013506 -0.0010756 1 0.017034 -0.20124 -0.97939 255 0 0
-0.045828 0.0019061 0.0010314 1 -0.00098052 0.0023205 -1 255 0 0
-0.042228 0.00042206 -0.0010606 1 0.26824 -0.70921 -0.65198 255 0 0
-0.041209 0.0010891 0.0010044 1 0.011688 -0.11325 0.9935 255 0 0
-0.041497 -0.0025519 -0.00068658 1 -0.0009791 0.0023215 -1 255 0 0
-0.042512 0.0015901 0.0010044 1 2.1802e-05 -0.0077562 0.99997 255 0 0
-0.042949 0.0012961 -0.0010646 1 0.011892 -0.027784 -0.99954 255 0 0
-0.043281 0.0016691 0.0010104 1 0.00098366 -0.0023171 1 255 0 0
-0.045607 -0.0024509 -0.00080358 1 0.012539 -0.035802 0.99928 255 0 0
-0.042921 0.00056106 -0.0010716 1 -0.00098052 0.0023205 -1 255 0 0
-0.041132 -0.00072794 -0.00098658 1 0.020057 -0.22388 0.97441 255 0 0
-0.04245 0.0020001 -0.0010366 1 -0.00098052 0.0023205 -1 255 0 0
-0.039926 0.0023581 0.00093243 1 0.0063869 0.29445 -0.95564 255 0 0
-0.038914 -0.0026219 0.00053542 1 0.011011 -0.061943 -0.99802 255 0 0
-0.036569 -0.0011329 0.00082242 1 0.063717 -0.99526 -0.073424 255 0 0
-0.036356 0.0012461 -0.0010076 1 0.00097714 -0.0023114 1 255 0 0
-0.038667 0.0012491 0.00097242 1 0.0072542 0.10517 0.99443 255 0 0
-0.040779 -0.0019139 0.00075642 1 0.0088014 0.18185 -0.98329 255 0 0
-0.036252 -0.00024594 0.00090542 1 0.010316 -0.0654 -0.99781 255 0 0
-0.040377 -0.00088294 -0.00096258 1 0.016392 -0.23762 -0.97122 255 0 0
-0.037396 0.00054706 0.00095442 1 0.011713 0.020801 0.99972 255 0 0
-0.038306 0.00010906 -0.0010126 1 0.007908 0.052495 -0.99859 255 0 0
-0.03734 -0.0018169 0.00071342 1 -0.00097867 0.0023222 -1 255 0 0
-0.0371 0.0021901 -0.00097357 1 0.051034 -0.67449 -0.73652 255 0 0
-0.036079 -0.0024219 -0.00060458 1 0.00098338 -0.0023213 1 255 0 0
-0.0378 1.5056e-05 0.00094142 1 0.013537 0.17493 -0.98449 255 0 0
-0.039826 -0.0014959 -0.00088058 1 -0.00033905 -0.065513 -0.99785 255 0 0
-0.040842 -0.0016289 -0.00087358 1 0.092506 -0.56613 -0.81911 255 0 0
-0.036954 -0.0012219 -0.00088458 1 0.013759 0.044244 -0.99893 255 0 0
-0.039124 -0.00024394 -0.0010076 1 -0.67147 0.11395 -0.73222 255 0 0
-0.038918 -0.0016689 0.00076842 1 0.016258 -0.061765 0.99796 255 0 0
-0.039404 -0.00041294 0.00093442 1 0.1338 -0.52293 -0.84181 255 0 0
-0.040088 0.0019881 -0.0010156 1 -0.00098052 0.0023205 -1 255 0 0
-0.040497 0.00071706 0.00099742 1 0.056308 0.50159 -0.86327 255 0 0
-0.038726 -0.0010009 -0.00093158 1 -0.00097991 0.0023213 -1 255 0 0
-0.038047 0.00094606 -0.0010326 1 0.00097898 -0.0023171 1 255 0 0
-0.039061 -0.0022109 -0.00073558 1 0.041285 -0.9029 -0.42787 255 0 0
-0.041002 0.00015006 0.00098442 1 0.17993 0.013789 -0.98358 255 0 0
-0.037485 -0.00087794 0.00086042 1 0.00013163 0.47982 -0.87737 255 0 0
-0.039242 0.0022231 0.00093843 1 0.017416 0.18333 0.9829 255 0 0
-0.036476 0.0019241 0.00092943 1 0.00097753 -0.0023199 1 255 0 0
-0.040597 0.0014381 0.00098743 1 0.016983 -0.094803 0.99535 255 0 0
-0.036917 -0.0023429 -0.00064758 1 0.0093757 0.13997 -0.99011 255 0 0
-0.039941 0.00018906 -0.0010306 1 0.0093776 -0.022579 -0.9997 255 0 0
-0.036534 0.00078806 0.00095142 1 0.0089076 0.052625 0.99857 255 0 0
-0.037135 -0.00018294 0.00092442 1 0.00098025 -0.0023215 1 255 0 0
-0.03882 0.00041706 0.00096742 1 0.0092869 -0.5499 -0.83518 255 0 0
-0.040329 0.0011411 -0.0010466 1 0.0081551 -0.15077 0.98853 255 0 0
-0.039658 -0.00070294 -0.00097158 1 0.011475 0.11759 0.993 255 0 0
-0.03758 -0.0024759 0.00054842 1 0.00098052 -0.0023205 1 255 0 0
-0.040559 0.00048006 -0.0010456 1 0.0089936 0.052777 -0.99857 255 0 0
-0.040728 -0.00057094 0.00093742 1 -0.00097641 0.002319 -1 255 0 0
-0.040483 -0.00022094 -0.0010246 1 -0.0007437 0.016556 -0.99986 255 0 0
-0.03664 -0.00039094 -0.00096358 1 -0.00098129 0.0023211 -1 255 0 0
-0.040281 -0.0014239 0.00083642 1 0.0082755 0.00084372 -0.99997 255 0 0
-0.038033 -0.0011649 -0.00090758 1 0.060168 -0.88343 -0.46468 255 0 0
-0.040965 0.0022101 -0.0010036 1 0.00098174 -0.0023223 1 255 0 0
-0.037284 2.8057e-05 -0.00099958 1 0.015394 -0.22222 0.97488 255 0 0
-0.036643 -0.0026019 0.00048642 1 0.031865 -0.40664 0.91303 255 0 0
-0.039698 -0.0024819 0.00059742 1 0.019623 -0.26526 -0.96398 255 0 0
-0.037259 0.0018441 0.00094043 1 0.0066357 0.55573 0.83133 255 0 0
-0.037585 -0.0016529 -0.00081758 1 -0.00098052 0.0023205 -1 255 0 0
-0.037302 0.0012431 -0.0010156 1 0.00098056 -0.0023252 1 255 0 0
-0.039551 -0.0012199 0.00085642 1 0.00097923 -0.0023164 1 255 0 0
-0.038287 -0.00087194 0.00087242 1 0.01244 -0.048284 -0.99876 255 0 0
-0.038291 -0.0019929 0.00069842 1 0.043166 -0.89338 -0.44721 255 0 0
-0.038209 -0.0020689 -0.00075458 1 -0.0021159 0.028489 -0.99959 255 0 0
-0.038159 0.00067206 0.00096742 1 0.019216 -0.20447 0.97868 255 0 0
-0.037916 0.0019431 -0.00099857 1 0.00098176 -0.0023193 1 255 0 0
-0.036491 -0.0017469 -0.00078458 1 0.054418 -0.17623 0.98284 255 0 0
-0.039619 0.00092006 0.00099242 1 -0.00098274 0.0023207 -1 255 0 0
-0.039571 0.00024006 0.00097042 1 0.01219 0.021577 -0.99969 255 0 0
-0.036574 0.00048006 -0.0010056 1 -0.00097715 0.0023199 -1 255 0 0
-0.039341 0.0015511 0.00097043 1 -0.00098052 0.0023205 -1 255 0 0
-0.037816 -0.00046594 -0.00097058 1 0.0009783 -0.0023197 1 255 0 0
-0.040227 -0.0024549 -0.00068758 1 0.0023424 0.24294 -0.97004 255 0 0
-0.039419 0.00068106 -0.0010396 1 0.00097936 -0.0023223 1 255 0 0
-0.038721 0.0022451 -0.00098157 1 0.012391 -0.063041 0.99793 255 0 0
-0.039106 0.0015701 -0.0010216 1 -0.00098145 0.0023237 -1 255 0 0
-0.037684 0.0012201 0.00096242 1 0.00098535 -0.0023246 1 255 0 0
-0.040107 -0.00025394 0.00096042 1 0.00097645 -0.0023216 1 255 0 0
-0.038021 0.0018481 0.00094843 1 0.00098052 -0.0023205 1 255 0 0
-0.036658 -0.0018399 0.00069742 1 0.00097569 -0.0023231 1 255 0 0
-0.038792 0.00095506 -0.0010386 1 -0.00097945 0.0023158 -1 255 0 0
-0.032375 -0.00067594 0.00080842 1 0.0064582 0.12891 -0.99164 255 0 0
-0.031088 0.0011631 0.00089242 1 0.014179 -0.11829 0.99288 255 0 0
-0.034427 0.00065606 -0.00098858 1 -0.00098182 0.0023204 -1 255 0 0
-0.032713 -0.0018319 0.00062742 1 0.00098294 -0.0023188 1 255 0 0
-0.032206 -0.0020009 -0.00064558 1 0.00098085 -0.0023178 1 255 0 0
-0.035692 -0.0010599 0.00081742 1 0.00098434 -0.0023169 1 255 0 0
-0.032858 0.00089506 -0.00097958 1 0.010007 0.1263 -0.99194 255 0 0
-0.032176 0.00061706 -0.00096458 1 -0.00098052 0.0023205 -1 255 0 0
-0.034688 0.0016851 -0.00097857 1 0.02058 -0.18548 0.98243 255 0 0
-0.031632 -0.0022739 0.00046542 1 0.010192 0.0079016 -0.99992 255 0 0
-0.031583 -6.4943e-05 -0.00093258 1 0.030503 -0.29731 0.95429 255 0 0
-0.033826 -0.0022799 0.00051742 1 -0.00098052 0.0023205 -1 255 0 0
-0.035887 0.0023011 -0.00095257 1 0.010558 0.021933 0.9997 255 0 0
-0.034006 -0.0010259 -0.00087158 1 0.010463 0.0019471 0.99994 255 0 0
-0.033019 -0.00043094 0.00084142 1 0.029224 -0.25972 0.96524 255 0 0
-0.035474 0.00078006 0.00093842 1 0.0088489 0.1511 -0.98848 255 0 0
-0.031786 -0.0016369 0.00064742 1 0.023283 -0.28382 -0.9586 255 0 0
-0.034059 0.0011801 0.00092442 1 0.0026767 0.046348 -0.99892 255 0 0
-0.032565 0.0010581 0.00091142 1 -0.00098154 0.0023179 -1 255 0 0
-0.034904 -0.0023119 -0.00061158 1 0.056467 -0.65589 -0.75274 255 0 0
-0.032618 -0.00093294 -0.00086358 1 0.010369 -0.040875 -0.99911 255 0 0
-0.032806 -0.00016894 -0.00093758 1 0.00098335 -0.0023188 1 255 0 0
-0.031234 0.0020091 0.00087043 1 -0.00097823 0.0023251 -1 255 0 0
-0.035937 -0.0017609 0.00069842 1 0.00098178 -0.0023188 1 255 0 0
-0.033978 -0.0017649 -0.00074158 1 0.014332 -0.061655 0.99799 255 0 0
-0.032945 0.0019421 -0.00095457 1 0.00098362 -0.0023214 1 255 0 0
-0.031529 1.4055e-05 0.00086442 1 -0.00098255 0.0023229 -1 255 0 0
-0.032859 0.0022841 0.00086643 1 0.017451 -0.14737 0.98893 255 0 0
-0.03218 0.00018706 0.00087942 1 0.00098127 -0.0023224 1 255 0 0
-0.033547 0.00079806 -0.00098358 1 -0.00098244 0.002323 -1 255 0 0
-0.033895 0.00012606 0.00089842 1 0.013617 -0.073998 0.99717 255 0 0
-0.033593 -0.0023119 -0.00058258 1 0.011767 -0.012701 0.99985 255 0 0
-0.033178 0.00058006 0.00090442 1 -0.00098052 0.0023205 -1 255 0 0
-0.032697 -0.0025639 0.00037742 1 0.010743 0.030397 0.99948 255 0 0
-0.033679 -0.00011394 -0.00095358 1 0.00097927 -0.0023244 1 255 0 0
-0.031418 0.0012321 -0.00096458 1 -0.00098052 0.0023205 -1 255 0 0
-0.035837 -0.0014889 -0.00081958 1 -0.00098062 0.0023233 -1 255 0 0
-0.035118 0.00017306 -0.00098158 1 0.00098183 -0.0023211 1 255 0 0
-0.034973 0.0016501 0.00092043 1 -0.00098052 0.0023205 -1 255 0 0
-0.035574 -0.00061394 -0.00092958 1 0.013326 -0.10448 0.99444 255 0 0
-0.031803 -0.0013019 -0.00078858 1 -0.00098052 0.0023205 -1 255 0 0
-0.031152 -0.0012649 0.00070442 1 0.00098243 -0.0023229 1 255 0 0
-0.033363 0.0017521 0.00090042 1 0.010611 -0.025365 -0.99962 255 0 0
-0.034693 -0.0011149 -0.00086758 1 0.00098146 -0.0023171 1 255 0 0
-0.033144 -0.0011139 0.00076642 1 0.015013 -0.11707 0.99301 255 0 0
-0.034743 0.00031706 0.00091442 1 0.013018 0.33595 -0.94179 255 0 0
-0.034294 -0.0016279 0.00069342 1 0.017697 -0.048092 -0.99869 255 0 0
-0.035047 -0.00035894 0.00087742 1 0.012941 -0.030095 0.99946 255 0 0
-0.034877 -0.0010919 0.00080142 1 0.013826 0.33429 0.94237 255 0 0
-0.034527 -0.00030494 -0.00094558 1 0.02618 -0.32915 -0.94391 255 0 0
-0.033897 -0.00069894 0.00082742 1 0.011851 0.18402 0.98285 255 0 0
-0.032121 0.0018471 -0.00094958 1 0.014837 -0.22761 -0.97364 255 0 0
-0.031483 -0.0019229 -0.00065358 1 0.00097991 -0.0023192 1 255 0 0
-0.035855 0.00022506 -0.00099058 1 0.016194 -0.11247 -0.99352 255 0 0
-0.035239 -0.0017499 0.00068842 1 0.016353 -0.12836 -0.99159 255 0 0
-0.035535 0.0015281 -0.00099058 1 0.00097661 -0.00232 1 255 0 0
-0.035481 0.00084606 -0.0010046 1 0.0072669 0.14076 -0.99002 255 0 0
-0.03104 0.0023121 -0.00091157 1 0.00098038 -0.0023178 1 255 0 0
-0.032074 0.0022171 0.00086543 1 0.015869 -0.10716 0.99412 255 0 0
-0.033689 0.0022321 -0.00094157 1 0.00098139 -0.0023194 1 255 0 0
-0.03293 -0.0015409 -0.00076458 1 0.011673 -0.24442 0.9696 255 0 0
-0.032031 0.0014891 0.00089342 1 0.00098443 -0.0023199 1 255 0 0
-0.033972 0.0022261 0.00088343 1 0.016354 -0.12439 0.9921 255 0 0
-0.032872 -0.0022159 -0.00059558 1 -0.00098326 0.0023223 -1 255 0 0
-0.033308 -0.00089194 -0.00087558 1 -0.00098052 0.0023205 -1 255 0 0
-0.034047 0.0014421 -0.00098058 1 -0.9997 -0.023015 -0.0080942 255 0 0
-0.03348 -0.0017169 0.00066342 1 0.0009718 -0.0023159 1 255 0 0
-0.03185 -0.0026069 -0.00040558 1 0.00097982 -0.0023219 1 255 0 0
-0.031787 0.00079806 0.00089442 1 -0.00097961 0.0023204 -1 255 0 0
-0.035669 0.0015071 0.00093242 1 0.014926 -0.19627 0.98044 255 0 0
-0.027015 -0.0019589 0.00045042 1 -0.00098206 0.0023211 -1 255 0 0
-0.030433 -0.0012499 0.00069342 1 0.024613 -0.373 0.92751 255 0 0
-0.027121 -0.0025929 5.0417e-05 1 -0.00098052 0.0023205 -1 255 0 0
-0.030178 -0.00040194 -0.00088358 1 0.00097897 -0.0023165 1 255 0 0
-0.027132 -0.0011289 -0.00074558 1 -0.00098278 0.0023223 -1 255 0 0
-0.029568 -0.00069694 -0.00084858 1 0.022611 -0.77049 0.63705 255 0 0
-0.02713 -0.0019099 -0.00056058 1 0.013625 0.82306 -0.56779 255 0 0
-0.030442 0.0022091 0.00084943 1 0.0009804 -0.0023249 1 255 0 0
-0.028386 -0.00067794 -0.00083558 1 0.00098052 -0.0023205 1 255 0 0
-0.026264 0.0023021 0.00079742 1 0.0097864 0.20125 -0.97949 255 0 0
-0.030935 -0.0015069 -0.00073958 1 0.01243 -0.067855 0.99762 255 0 0
-0.028681 0.0015601 -0.00092858 1 -0.00098052 0.0023205 -1 255 0 0
-0.02721 0.00048206 0.00082942 1 0.073143 -0.98731 0.14095 255 0 0
-0.029268 -0.0020879 -0.00055458 1 0.015733 -0.15352 0.98802 255 0 0
-0.026775 -0.0012469 0.00062942 1 0.075188 -0.47686 -0.87576 255 0 0
-0.028208 -0.0022039 -0.00049458 1 0.00097839 -0.0023196 1 255 0 0
-0.027679 0.00010506 -0.00090058 1 0.011489 -0.06774 0.99764 255 0 0
-0.028998 0.0012691 0.00086742 1 0.00097842 -0.0023237 1 255 0 0
-0.02769 -0.00065294 -0.00082958 1 0.014122 -0.09848 0.99504 255 0 0
-0.030859 -0.00065694 0.00078842 1 0.0081599 0.1852 -0.98267 255 0 0
-0.028515 -0.0015289 -0.00069758 1 -0.00098052 0.0023205 -1 255 0 0
-0.027519 -0.00050094 0.00075642 1 0.0081039 0.23646 0.97161 255 0 0
-0.026198 0.0010541 0.00083542 1 0.00097927 -0.0023191 1 255 0 0
-0.026834 0.0012551 -0.00092258 1 0.010782 0.22607 0.97405 255 0 0
-0.027128 0.0023681 -0.00087357 1 -0.00098052 0.0023205 -1 255 0 0
-0.028757 6.1057e-05 -0.00090958 1 0.069807 -0.17523 -0.98205 255 0 0
-0.026668 -0.00042094 -0.00083858 1 0.0084907 0.18828 -0.98208 255 0 0
-0.030628 0.0013631 -0.00095258 1 0.020667 -0.19764 0.98006 255 0 0
-0.030394 0.0011801 0.00088442 1 0.00098295 -0.0023214 1 255 0 0
-0.030848 -0.00068794 -0.00086458 1 0.0051897 0.31222 -0.95 255 0 0
-0.026073 0.00035306 0.00081142 1 0.0069301 0.046629 0.99889 255 0 0
-0.02919 0.0022231 -0.00090457 1 -0.00097845 0.0023206 -1 255 0 0
-0.029608 -0.00099494 0.00072542 1 -0.042187 0.65069 -0.75817 255 0 0
-0.026386 -0.00037994 0.00075242 1 0.000979 -0.0023235 1 255 0 0
-0.029746 -0.0018569 0.00054842 1 0.00097243 -0.0023199 1 255 0 0
-0.027903 -0.0019679 0.00046942 1 0.00097835 -0.0023204 1 255 0 0
-0.027833 -0.0015329 -0.00068558 1 0.011686 -0.072163 -0.99732 255 0 0
-0.026058 -0.00092594 -0.00076458 1 0.017299 -0.16725 0.98576 255 0 0
-0.029323 -0.0014089 -0.00073058 1 0.037062 -0.52372 -0.85109 255 0 0
-0.026696 0.00059606 -0.00090858 1 -0.00098052 0.0023205 -1 255 0 0
-0.027716 0.0013251 0.00085142 1 -0.00098052 0.0023205 -1 255 0 0
-0.030678 -0.0025029 0.00033242 1 0.00098253 -0.0023152 1 255 0 0
-0.028385 0.00063306 -0.00092658 1 0.011307 0.26207 -0.96498 255 0 0
-0.027445 -0.0013979 0.00061442 1 0.013176 -0.012785 0.99983 255 0 0
-0.029411 -0.0024639 0.00030442 1 0.016726 -0.21308 0.97689 255 0 0
-0.029258 -0.00030494 0.00080042 1 -0.00098052 0.0023205 -1 255 0 0
-0.026959 0.0011841 0.00084742 1 0.013645 0.036526 0.99924 255 0 0
-0.029749 0.0018571 -0.00092858 1 0.010203 0.094332 0.99549 255 0 0
-0.028522 -0.0023259 0.00034742 1 -0.09478 0.84454 0.52704 255 0 0
-0.030226 -0.0011099 -0.00079858 1 0.00098748 -0.0023172 1 255 0 0
-0.027223 0.0018081 0.00083242 1 0.0088438 0.016742 -0.99982 255 0 0
-0.030303 -0.0020669 -0.00058358 1 0.023997 -0.34452 0.93847 255 0 0
-0.030344 0.0021621 -0.00092057 1 0.00098304 -0.0023264 1 255 0 0
-0.029621 0.00074306 0.00086642 1 0.012074 -0.032996 0.99938 255 0 0
-0.028413 -0.00018794 0.00080042 1 0.00098206 -0.0023266 1 255 0 0
-0.029611 7.5057e-05 -0.00092158 1 0.010367 -0.015905 0.99982 255 0 0
-0.029213 0.0011021 -0.00094858 1 -0.036519 -0.85147 -0.52313 255 0 0
-0.030051 -2.9945e-05 0.00083942 1 -0.00098131 0.0023184 -1 255 0 0
-0.029617 0.0016961 0.00086142 1 -0.0009809 0.0023214 -1 255 0 0
-0.026459 0.0019231 -0.00089758 1 0.01231 -0.0041684 0.99992 255 0 0
-0.030684 0.00029606 -0.00094058 1 -0.00098052 0.0023205 -1 255 0 0
-0.026281 -0.0022229 0.00031742 1 0.017696 -0.17987 0.98353 255 0 0
-0.028305 0.00084706 0.00085442 1 -0.00098052 0.0023205 -1 255 0 0
-0.027575 0.00092806 -0.00092658 1 -0.049713 -0.15521 -0.98663 255 0 0
-0.028913 0.00055206 0.00085242 1 -0.00098074 0.0023203 -1 255 0 0
-0.028227 0.0021161 0.00083442 1 0.00098059 -0.0023238 1 255 0 0
-0.029988 0.0010291 -0.00095358 1 -0.00098052 0.0023205 -1 255 0 0
-0.028732 -0.0010949 0.00069142 1 -0.00073894 0.043555 -0.99905 255 0 0
-0.02772 0.0020461 -0.00090458 1 0.0088322 0.061555 0.99806 255 0 0
-0.030787 0.00023806 0.00086442 1 0.00098065 -0.0023246 1 255 0 0
-0.02806 -0.0010779 0.00068342 1 0.015024 -0.11047 -0.99377 255 0 0
-0.028921 0.0019741 0.00084642 1 0.0080726 0.25129 -0.96788 255 0 0
-0.029008 -0.0018459 0.00053342 1 -0.00098052 0.0023205 -1 255 0 0
-0.026458 -0.0019499 -0.00053358 1 -0.00097993 0.0023242 -1 255 0 0
-0.025504 0.00085806 -0.00090358 1 0.01303 -0.064764 0.99782 255 0 0
-0.021365 -0.0012619 -0.00062758 1 -0.036474 0.47462 -0.87943 255 0 0
-0.024355 0.00051806 -0.00088258 1 -0.00098306 0.0023191 -1 255 0 0
-0.024458 0.00049706 0.00079642 1 0.0074746 0.13728 -0.9905 255 0 0
-0.025596 0.0022981 -0.00086758 1 0.0068484 0.031113 -0.99949 255 0 0
-0.022233 -0.00035094 0.00069642 1 0.00098203 -0.002318 1 255 0 0
-0.0238 -0.0023969 -0.00011158 1 0.047343 -0.57714 0.81527 255 0 0
-0.022437 -0.0011199 0.00057542 1 0.0097506 0.0042528 -0.99994 255 0 0
-0.025275 0.00021606 -0.00088158 1 -0.00098153 0.0023235 -1 255 0 0
-0.023608 0.0021161 -0.00086558 1 0.0050201 0.069185 -0.99759 255 0 0
-0.022424 0.0015711 0.00078742 1 -0.00093968 0.0017865 -1 255 0 0
-0.025802 -0.0024079 -0.00029058 1 0.00098243 -0.0023226 1 255 0 0
-0.021566 0.0012441 -0.00087458 1 0.016004 -0.14531 0.98926 255 0 0
-0.021147 -0.0019439 0.00027142 1 0.0075481 0.55542 -0.83154 255 0 0
-0.024146 -0.0014369 -0.00063658 1 -0.00098386 0.0023215 -1 255 0 0
-0.023878 0.0011091 -0.00089458 1 0.010638 -0.017248 0.99979 255 0 0
-0.024368 0.0021921 0.00078842 1 0.013283 -0.08618 0.99619 255 0 0
-0.023006 0.00091806 0.00079242 1 0.038978 -0.40097 -0.91526 255 0 0
-0.025287 -0.0023259 0.00021842 1 0.00098348 -0.0023237 1 255 0 0
-0.025186 0.0019411 0.00080642 1 0.00098312 -0.0023239 1 255 0 0
-0.025392 0.00034806 0.00080242 1 0.019343 -0.72076 -0.69292 255 0 0
-0.023748 0.00043006 0.00078542 1 0.056209 -0.96851 0.24256 255 0 0
-0.024732 0.0022721 -0.00086358 1 0.00098272 -0.0023196 1 255 0 0
-0.022997 -0.0021349 0.00023642 1 -0.00097583 0.0023211 -1 255 0 0
-0.023526 0.0023491 0.00076542 1 0.00097612 -0.0023233 1 255 0 0
-0.022356 -0.00060394 -0.00076358 1 0.012662 0.02992 0.99947 255 0 0
-0.023183 0.0017151 0.00079142 1 0.00098052 -0.0023205 1 255 0 0
-0.02203 -0.0013449 -0.00061758 1 0.012045 0.3746 0.92711 255 0 0
-0.022629 0.00024806 -0.00085258 1 0.0096785 -0.28232 -0.95927 255 0 0
-0.021039 0.00080906 -0.00085758 1 -0.98927 0.041399 -0.1401 255 0 0
-0.02434 0.0016701 -0.00088658 1 -0.00097823 0.0023204 -1 255 0 0
-0.023541 -0.00090494 0.00063442 1 -0.00098052 0.0023205 -1 255 0 0
-0.025846 0.0016111 -0.00090258 1 0.05285 -0.089692 0.99457 255 0 0
-0.025411 -0.00085294 0.00067742 1 -0.00098052 0.0023205 -1 255 0 0
-0.022913 -0.00026994 0.00071442 1 0.066125 -0.81806 0.57132 255 0 0
-0.024232 0.0013451 0.00081342 1 0.013545 -0.013216 0.99982 255 0 0
-0.022694 0.0020261 -0.00086058 1 0.00098377 -0.0023249 1 255 0 0
-0.024705 -0.0015519 0.00051942 1 0.026863 0.55424 0.83192 255 0 0
-0.023657 -0.00089794 -0.00073258 1 0.00098301 -0.0023232 1 255 0 0
-0.02598 -0.0013899 0.00058942 1 -0.00097764 0.0023193 -1 255 0 0
-0.023896 -0.0018069 0.00042142 1 0.009775 -0.52711 -0.84974 255 0 0
-0.021654 -0.00072494 0.00063342 1 0.010581 -0.041834 -0.99907 255 0 0
-0.023145 -0.0015149 0.00049342 1 0.01315 0.13094 0.9913 255 0 0
-0.023337 -0.0016779 -0.00054658 1 -0.00097973 0.0023234 -1 255 0 0
-0.025769 -0.0017509 -0.00057858 1 0.071919 -0.96222 0.26262 255 0 0
-0.021462 0.0015341 0.00077742 1 0.0732 -0.83277 -0.54876 255 0 0
-0.025974 6.7058e-05 -0.00087658 1 0.0085717 0.046821 0.99887 255 0 0
-0.024667 -0.00063394 -0.00079458 1 -0.00098052 0.0023209 -1 255 0 0
-0.022176 -0.0021039 0.00022142 1 -0.03429 0.41966 -0.90703 255 0 0
-0.023615 -7.5942e-05 -0.00083458 1 0.012314 -0.0085536 0.99989 255 0 0
-0.024617 -0.0021059 -0.00041458 1 0.048032 -0.96445 -0.25987 255 0 0
-0.024506 -0.00062794 0.00070142 1 0.013348 0.04332 0.99897 255 0 0
-0.025495 -0.00042594 -0.00082458 1 0.010271 0.0066039 -0.99993 255 0 0
-0.025849 0.0017371 0.00081942 1 -0.21571 -0.97463 0.059737 255 0 0
-0.021403 -0.0019969 -0.00035558 1 -0.00098079 0.002319 -1 255 0 0
-0.023311 0.00061906 -0.00087458 1 0.00098052 -0.0023205 1 255 0 0
-0.021989 0.0020641 -0.00085258 1 0.025739 -0.30845 0.95089 255 0 0
-0.0217 -4.9942e-05 -0.00081358 1 0.012509 0.28834 0.95745 255 0 0
-0.022468 -0.0019069 -0.00044558 1 -0.00098052 0.0023205 -1 255 0 0
-0.021044 0.0017471 -0.00085458 1 0.00097841 -0.0023171 1 255 0 0
-0.022259 0.00080706 -0.00086958 1 0.0080835 0.10308 0.99464 255 0 0
-0.022731 -0.0011909 -0.00066558 1 0.010426 0.51455 -0.85739 255 0 0
-0.025101 0.0015371 -0.00089758 1 0.012073 -0.032991 0.99938 255 0 0
-0.022236 0.0022131 0.00076442 1 0.00097268 -0.0023247 1 255 0 0
-0.021677 -0.0015269 0.00045442 1 -0.59628 0.048558 -0.80131 255 0 0
-0.022935 0.0013531 -0.00088458 1 0.010436 0.075761 -0.99707 255 0 0
-0.025481 0.0010371 0.00082642 1 0.046724 -0.53202 -0.84544 255 0 0
-0.024975 -0.0014459 -0.00065258 1 0.0080451 -0.010561 -0.99991 255 0 0
-0.021713 0.00067106 0.00076842 1 -0.018421 0.48927 0.87194 255 0 0
-0.022523 0.00044806 0.00077142 1 0.010842 0.43942 -0.89822 255 0 0
-0.020417 0.00092506 0.00076142 1 0.00097664 -0.0023235 1 255 0 0
-0.017449 -0.00031394 -0.00073658 1 0.00098219 -0.0023202 1 255 0 0
-0.020004 0.0010941 -0.00085458 1 0.023304 -0.26536 0.96387 255 0 0
-0.016348 -0.0015369 0.00031242 1 -0.00098052 0.0023205 -1 255 0 0
-0.017044 -0.00067294 0.00056142 1 0.00097767 -0.0023267 1 255 0 0
-0.018663 -0.00055194 -0.00071458 1 -0.00098124 0.0023188 -1 255 0 0
-0.017828 0.0023471 -0.00079858 1 0.00097525 -0.0023221 1 255 0 0
-0.020078 -0.0020599 -0.00026958 1 -0.00098282 0.0023176 -1 255 0 0
-0.019814 -0.00080794 0.00058542 1 0.12513 -0.9491 -0.28906 255 0 0
-0.02081 -0.00058494 0.00064442 1 0.01597 -0.27057 -0.96257 255 0 0
-0.018177 0.0013401 -0.00084358 1 0.0073508 0.028071 -0.99958 255 0 0
-0.017422 -0.0016279 0.00030342 1 0.009394 0.025676 -0.99963 255 0 0
-0.018577 -0.0012079 0.00047642 1 0.00098851 -0.0023192 1 255 0 0
-0.016777 0.00058406 0.00070642 1 -0.0009822 0.0023184 -1 255 0 0
-0.017373 0.0015351 -0.00082958 1 -0.00097831 0.0023216 -1 255 0 0
-0.019252 -0.0012629 0.00047542 1 0.00098299 -0.0023209 1 255 0 0
-0.019519 -0.00011094 -0.00078058 1 -0.00098156 0.0023186 -1 255 0 0
-0.019378 0.0018401 0.00074642 1 0.087254 -0.68622 -0.72214 255 0 0
-0.018477 0.00055106 -0.00082358 1 0.02008 -0.07173 0.99722 255 0 0
-0.020989 0.00053506 0.00075542 1 0.044322 -0.42586 0.9037 255 0 0
-0.017523 0.0018581 0.00072542 1 0.07321 -0.78337 0.61723 255 0 0
-0.017834 -0.0011309 0.00048242 1 0.00098175 -0.0023175 1 255 0 0
-0.01613 -0.00091794 -0.00061058 1 0.00098063 -0.0023254 1 255 0 0
-0.020052 0.00035906 -0.00083158 1 0.045774 -0.84572 -0.53165 255 0 0
-0.018758 0.0021441 -0.00082158 1 0.00098445 -0.0023185 1 255 0 0
-0.01676 -0.0014479 -0.00046958 1 -0.010978 0.89721 -0.44146 255 0 0
-0.016337 0.0010331 -0.00081558 1 0.0093332 0.344 -0.93892 255 0 0
-0.016831 -0.0019369 1.5415e-05 1 0.00098601 -0.0023216 1 255 0 0
-0.018894 0.0010521 0.00074742 1 0.01975 -0.19477 0.98065 255 0 0
-0.016092 0.0018551 0.00071042 1 0.01218 -0.094108 -0.99549 255 0 0
-0.018773 -5.9435e-06 0.00068142 1 0.02677 0.29976 -0.95364 255 0 0
-0.02044 0.0022111 0.00074642 1 -0.00098052 0.0023205 -1 255 0 0
-0.01837 0.0017891 0.00073742 1 -0.07921 -0.56855 0.81883 255 0 0
-0.019966 0.0014821 0.00076342 1 -0.00098052 0.0023205 -1 255 0 0
-0.016869 0.0017111 0.00072242 1 -0.024005 -0.078444 -0.99663 255 0 0
-0.018027 0.0011651 0.00074042 1 -0.00098234 0.0023234 -1 255 0 0
-0.020456 -0.0010759 -0.00065058 1 0.0090039 0.066299 -0.99776 255 0 0
-0.017803 -0.00023794 0.00064442 1 0.011148 -0.025675 -0.99961 255 0 0
-0.019946 -5.7944e-05 0.00069342 1 -0.00098123 0.0023161 -1 255 0 0
-0.016701 -0.00027194 -0.00073158 1 0.013393 -0.096184 0.99527 255 0 0
-0.018133 0.00037006 0.00070942 1 0.011107 0.053621 0.9985 255 0 0
-0.01873 -0.0020119 0.00010442 1 0.0009826 -0.0023215 1 255 0 0
-0.018564 -0.0016409 -0.00044858 1 0.0086912 0.1288 -0.99163 255 0 0
-0.019578 -0.00090794 -0.00066658 1 0.0092786 0.1725 0.98497 255 0 0
-0.016702 0.0017381 -0.00081658 1 -0.0097082 0.6855 -0.72801 255 0 0
-0.019591 0.0019981 -0.00083358 1 -0.00098052 0.0023205 -1 255 0 0
-0.020735 -0.0018209 -0.00042858 1 -0.10215 0.39937 -0.91108 255 0 0
-0.016036 -0.0018149 -0.00025158 1 0.010947 0.093124 0.99559 255 0 0
-0.020495 -0.0013589 0.00047642 1 0.00097822 -0.0023198 1 255 0 0
-0.019297 -0.0016679 -0.00045958 1 -0.00098052 0.0023205 -1 255 0 0
-0.017862 0.00023806 -0.00079358 1 -0.00098059 0.0023221 -1 255 0 0
-0.017076 0.00069806 -0.00081358 1 0.010096 -0.054868 -0.99844 255 0 0
-0.019225 0.00050306 -0.00083058 1 0.013316 0.2604 -0.96541 255 0 0
-0.017707 -0.0012189 -0.00055958 1 0.0086579 0.12635 0.99195 255 0 0
-0.0178 -0.0020199 -9.1585e-05 1 0.06408 -0.7333 0.67688 255 0 0
-0.019036 0.0015331 -0.00084458 1 0.008869 0.033192 -0.99941 255 0 0
-0.019929 -0.0017299 0.00034442 1 0.027728 0.4173 0.90835 255 0 0
-0.0207 -0.00029494 -0.00077758 1 -0.00098052 0.0023205 -1 255 0 0
-0.019643 0.00058706 0.00074142 1 0.0025129 -0.63558 0.77203 255 0 0
