ply
format ascii 1.0
comment author Paulo Abelha (p.abelha at abdn ac uk)
element vertex 720
property float x
property float y
property float z
property int segm
property float nx
property float ny
property float nz
property uchar red
property uchar green
property uchar blue
end_header
0.016731 -0.00084071 -0.0094157 2 -0.04016 -0.00054642 0.99919 0 255 0
0.016442 0.0020612 -0.0068349 2 -0.086731 0.20096 0.97575 0 255 0
0.014792 0.003062 -0.0064907 2 0 0 0 0 255 0
0.018262 -0.00013968 -0.0072142 2 -0.24562 0.42035 0.87349 0 255 0
0.014992 0.0013598 -0.0091453 2 -0.074766 0.00051434 -0.99721 0 255 0
0.014281 -3.9744e-05 -0.0090354 2 0 0 0 0 255 0
0.019723 0.0034582 -0.0092328 2 0.14888 -0.18513 -0.97137 0 255 0
0.020932 0.0020597 -0.0073427 2 -0.11148 0.00062607 -0.99377 0 255 0
0.022132 0.0013591 -0.0074842 2 -0.15334 0.40622 0.90082 0 255 0
0.019331 -0.00073997 -0.0075318 2 -0.022859 -0.396 -0.91797 0 255 0
0.022202 0.0026594 -0.0072302 2 0.016586 -0.98754 -0.1565 0 255 0
0.021422 0.00065739 -0.010153 2 0.080534 -0.00078967 0.99676 0 255 0
0.021242 0.0027582 -0.0096683 2 0.027394 -0.96771 0.25055 0 255 0
0.021831 -0.00074079 -0.0076187 2 -0.040128 -0.00062044 0.99919 0 255 0
0.023932 0.0017566 -0.0097884 2 -0.53895 -0.17318 0.82434 0 255 0
0.019901 -0.00054215 -0.010212 2 -0.11161 0.00054915 -0.99376 0 255 0
0.023171 -0.001341 -0.0074391 2 0.040228 0.21842 -0.97503 0 255 0
0.019372 0.0017582 -0.0098556 2 0.21679 0.23524 -0.94746 0 255 0
0.022412 0.0014574 -0.0099333 2 0.028376 -0.96573 -0.25799 0 255 0
0.022812 0.00035711 -0.010123 2 -0.31723 0.4055 0.85728 0 255 0
0.022061 -0.00084263 -0.010083 2 -0.43996 0.27072 0.85624 0 255 0
0.021421 0.00035935 -0.0077055 2 -0.14757 -0.23316 0.96118 0 255 0
0.024112 0.0010587 -0.0074209 2 -0.07169 -0.00064677 0.99743 0 255 0
0.019403 0.0031606 -0.0067796 2 -0.15523 -0.23524 0.95946 0 255 0
0.023662 -0.00054312 -0.010039 2 0.056046 -0.0088977 -0.99839 0 255 0
0.019572 0.00045981 -0.0075986 2 -0.18796 0.0065369 -0.98216 0 255 0
0.023433 0.0027587 -0.0071322 2 -0.43026 -0.28185 0.85758 0 255 0
0.023212 0.00025875 -0.0076214 2 -0.046766 -0.00054117 0.99891 0 255 0
0.020642 -0.0009406 -0.0076746 2 0.32206 0.19932 -0.9255 0 255 0
0.020272 0.0008577 -0.010199 2 0.096728 1.0066e-05 0.99531 0 255 0
0.022932 0.002457 -0.009711 2 -0.23907 -0.22976 0.94343 0 255 0
0.026422 0.00095788 -0.0073028 2 -0.042702 -0.35385 -0.93433 0 255 0
0.027461 -0.00024387 -0.0098809 2 0.34924 0.37997 -0.85653 0 255 0
0.026783 0.0030585 -0.0068883 2 0.076663 0.00049366 -0.99706 0 255 0
0.026261 -0.00084182 -0.0073485 2 -0.86364 -0.49632 -0.088275 0 255 0
0.029061 5.5676e-05 -0.0097971 2 0.56114 -0.47651 -0.67681 0 255 0
0.025642 0.0028568 -0.0094882 2 -0.21391 -0.43187 0.8762 0 255 0
0.027373 0.0035566 -0.0092427 2 -0.42432 -0.34137 0.8387 0 255 0
0.028133 0.002358 -0.0069438 2 0.34507 -0.00081696 0.93858 0 255 0
0.027232 0.001056 -0.0097199 2 0.55079 -0.15537 -0.82006 0 255 0
0.024911 -0.00094146 -0.0073994 2 0.032333 0.85314 -0.52067 0 255 0
0.027702 0.00095807 -0.0072238 2 0.080293 0.00067974 -0.99677 0 255 0
0.028922 0.0024562 -0.0093618 2 0.27643 -0.34227 -0.89802 0 255 0
0.029072 0.0013574 -0.00706 2 0 0 0 0 255 0
0.025783 0.0019585 -0.0071465 2 -0.20474 0.75999 -0.61685 0 255 0
0.024431 0.00065688 -0.0099746 2 -0.065528 -0.0006214 0.99785 0 255 0
0.025502 0.0013568 -0.0097731 2 0.18678 0.35612 0.91558 0 255 0
0.025302 0.0031584 -0.0069494 2 -0.35394 0.24558 0.90245 0 255 0
0.027742 -0.00034225 -0.0073417 2 -0.072848 -0.00072187 0.99734 0 255 0
0.029061 -0.0003425 -0.0072777 2 0.11154 -0.00086093 0.99377 0 255 0
0.026872 -0.0014438 -0.009684 2 0.11425 0.21091 -0.97082 0 255 0
0.028382 0.001356 -0.009604 2 0.11131 -0.00058455 0.99379 0 255 0
0.024453 0.003257 -0.0094826 2 -0.11269 0.21466 0.97017 0 255 0
0.027612 0.0022563 -0.0094777 2 0.056171 0.00070615 -0.99842 0 255 0
0.025102 -0.00034347 -0.010002 2 -0.40169 0.91304 -0.070771 0 255 0
0.026351 0.00015629 -0.0099412 2 -0.1337 -0.11467 0.98437 0 255 0
0.025122 0.00045829 -0.0074714 2 0.40367 -0.35687 -0.84243 0 255 0
0.030402 -0.00064282 -0.0071275 2 0.29515 0.20525 -0.93314 0 255 0
0.031263 0.0024549 -0.0092227 2 0.0091247 -0.40711 0.91333 0 255 0
0.032432 -4.4845e-05 -0.0096139 2 -0.1151 -0.0012668 -0.99335 0 255 0
0.029643 0.0034564 -0.0091355 2 0.057365 -0.18499 -0.98106 0 255 0
0.033841 -0.00044522 -0.0094446 2 0.11149 -0.00074832 0.99377 0 255 0
0.031592 0.00095711 -0.0069927 2 0.22226 0.0011739 -0.97499 0 255 0
0.033502 0.0027554 -0.009012 2 0.071342 0.19258 -0.97868 0 255 0
0.029562 0.0012554 -0.0095519 2 0.019891 0.00057694 -0.9998 0 255 0
0.033821 -0.00094362 -0.0068602 2 -0.21606 0.01411 0.97627 0 255 0
0.032012 -0.00074326 -0.0070244 2 -0.095259 0.20616 0.97387 0 255 0
0.032653 0.0019548 -0.0092194 2 0.11145 -0.00079819 0.99378 0 255 0
0.032032 0.0010554 -0.0094357 2 -0.44746 0.30977 0.83894 0 255 0
0.032922 0.0020568 -0.0066994 2 -0.036298 -0.40848 0.91205 0 255 0
0.033882 0.0029566 -0.0064461 2 0.21171 0.72712 0.65304 0 255 0
0.030792 0.0012557 -0.0094709 2 0.021282 0.37436 -0.92703 0 255 0
0.033271 -0.0014451 -0.0092929 2 -0.032317 0.39392 -0.91857 0 255 0
0.033012 0.00075698 -0.0069255 2 0.3868 -0.27528 -0.88012 0 255 0
0.030252 0.0030581 -0.0066793 2 -0.039251 0.078487 0.99614 0 255 0
0.030342 -4.4561e-05 -0.00974 2 0.41605 -0.31316 -0.85372 0 255 0
0.030762 0.001957 -0.0068434 2 -0.001007 0.00022198 -1 0 255 0
0.034062 0.00095455 -0.0093176 2 -0.11149 0.00062269 -0.99377 0 255 0
0.030112 0.00065749 -0.0071254 2 0.10694 0.14393 -0.98379 0 255 0
0.038912 0.0020541 -0.0083112 2 -0.074766 0.00070618 -0.99721 0 255 0
0.038901 -0.0012459 -0.0083148 2 -0.10342 0.35796 -0.928 0 255 0
0.036541 -0.00064596 -0.0088534 2 -0.1117 0.00064584 -0.99375 0 255 0
0.038251 -0.00064658 -0.0090803 2 0.30371 -0.21114 -0.92906 0 255 0
0.037532 0.000856 -0.0061604 2 0.048071 0.94992 -0.30873 0 255 0
0.037551 -0.00024472 -0.0067306 2 0.11149 -0.00059504 0.99377 0 255 0
0.036252 0.0015538 -0.008917 2 0.043758 0.97297 -0.22676 0 255 0
0.037783 0.0022562 -0.0061024 2 0.21728 -0.22965 -0.94872 0 255 0
0.036562 0.0030541 -0.0087291 2 0.068903 -0.00015743 -0.99762 0 255 0
0.037512 0.0023541 -0.0087855 2 -0.27621 -0.22275 0.93492 0 255 0
0.036072 0.0005561 -0.0067693 2 -0.33276 0.24777 0.90989 0 255 0
0.034252 0.0012562 -0.0067578 2 0.10852 -0.6909 0.71475 0 255 0
0.038772 0.0010556 -0.0064625 2 0.4018 0.30582 -0.86314 0 255 0
0.035753 0.0022563 -0.0064495 2 -0.0094051 -0.69286 -0.72101 0 255 0
0.037332 0.00025406 -0.0086709 2 0.080134 0.00071968 -0.99679 0 255 0
0.038562 0.00085308 -0.0090054 2 0.1137 0.12379 0.98577 0 255 0
0.036201 -0.00094445 -0.0067031 2 -0.30232 -0.41189 0.85962 0 255 0
0.039013 0.0033553 -0.0058212 2 0.031735 0.00059335 -0.9995 0 255 0
0.035142 0.0021543 -0.0090204 2 0.080438 0.00058669 -0.99676 0 255 0
0.035271 0.00035413 -0.0091421 2 0.093227 -0.36424 0.92663 0 255 0
0.035212 -0.00024376 -0.0069037 2 -0.21636 0.23308 0.94809 0 255 0
0.038473 0.0032539 -0.0085271 2 0.071481 0.0010673 -0.99744 0 255 0
0.038951 -0.00024432 -0.0064536 2 0.27663 -0.22001 -0.93545 0 255 0
0.038031 -0.0011438 -0.0060469 2 0 0 0 0 255 0
0.036793 0.0029564 -0.006237 2 -0.1114 0.00077436 -0.99378 0 255 0
0.042611 0.0011549 -0.0056184 2 0.069561 -0.91182 0.40465 0 255 0
0.039391 -4.5872e-05 -0.0082027 2 -0.21675 -0.236 0.94726 0 255 0
0.042242 0.0027536 -0.0081687 2 0 0 0 0 255 0
0.039773 0.0023553 -0.0056484 2 -0.1919 -0.43854 0.87798 0 255 0
0.043781 0.00095519 -0.0047353 2 -0.063069 -0.0007938 0.99801 0 255 0
0.040032 0.0012537 -0.0086727 2 -0.35762 0.38199 0.85217 0 255 0
0.041002 0.0012538 -0.0078357 2 -0.046868 -0.00057526 0.9989 0 255 0
0.043301 -0.0008453 -0.005463 2 -0.092741 0.20974 0.97336 0 255 0
0.041811 -0.00094403 -0.005185 2 -0.29644 0.21323 0.93095 0 255 0
0.042682 0.0024558 -0.0049845 2 0.35603 0.13995 -0.92393 0 255 0
0.043842 0.00035311 -0.0078029 2 0.07864 0.00025886 -0.9969 0 255 0
0.040221 -0.0011468 -0.0086308 2 -0.0011289 0.78834 0.61524 0 255 0
0.044122 -0.0011449 -0.0046587 2 0.65739 -0.068009 -0.75048 0 255 0
0.040581 -0.00024626 -0.0079305 2 -0.22256 -0.00080798 0.97493 0 255 0
0.040882 0.0025549 -0.0059716 2 0.11157 -0.00078388 0.99376 0 255 0
0.043522 0.0017539 -0.0072599 2 0.040364 -0.99134 -0.12496 0 255 0
0.039472 0.00055616 -0.0057172 2 0.13951 -0.7423 -0.65538 0 255 0
0.040441 -0.0014449 -0.0061146 2 -0.071424 -0.00057141 0.99745 0 255 0
0.041632 0.0031552 -0.005223 2 -0.14584 0.9885 -0.040075 0 255 0
0.041732 -0.00034691 -0.0082844 2 -0.3342 -0.28612 0.89802 0 255 0
0.040661 -0.00044437 -0.0054474 2 -0.071162 0.19092 0.97902 0 255 0
0.042801 -0.0014473 -0.0080416 2 0.19544 0.19494 -0.96115 0 255 0
0.043031 -0.00034611 -0.0073724 2 -0.025462 0.00061404 -0.99967 0 255 0
0.040473 0.0027531 -0.0084687 2 -0.012057 -0.00057967 0.99993 0 255 0
0.044012 0.0035533 -0.0077622 2 0.19838 0.025687 -0.9798 0 255 0
0.042672 0.00055373 -0.0080701 2 0 0 0 0 255 0
0.040851 0.00085481 -0.0060193 2 -0.17166 -0.2275 0.95852 0 255 0
0.043702 -0.0013463 -0.0072206 2 -0.44284 0.31773 0.83841 0 255 0
0.043053 0.0029534 -0.0073658 2 -0.040073 -0.00061878 0.9992 0 255 0
0.041223 0.0032534 -0.007783 2 0.39536 0.35683 -0.84637 0 255 0
0.043083 0.0035547 -0.0055103 2 -0.21675 -0.020607 0.97601 0 255 0
0.042551 0.00015514 -0.0050158 2 0.092182 -0.34472 0.93417 0 255 0
0.042092 0.0017537 -0.0075849 2 0.065848 0.42463 -0.90297 0 255 0
0.048233 0.0032529 -0.0068009 2 0.012446 -0.0006371 0.99992 0 255 0
0.049032 0.0016521 -0.0066197 2 0.27172 -0.21663 -0.93768 0 255 0
0.045272 0.0012525 -0.0074775 2 -0.088411 -0.14354 -0.98569 0 255 0
0.049112 0.0033529 -0.005984 2 -0.012206 0.99992 -0.0031557 0 255 0
0.044861 -0.00094615 -0.0069549 2 0.36343 0.3752 -0.85273 0 255 0
0.047982 0.0020534 -0.0062421 2 0.30313 -0.20675 -0.93025 0 255 0
0.048002 0.0026543 -0.0043894 2 -0.18863 -0.23066 0.95458 0 255 0
0.044222 0.0021545 -0.0052501 2 0.26389 -0.41984 -0.86839 0 255 0
0.047842 -0.00094785 -0.0068948 2 -0.11144 0.00062986 -0.99378 0 255 0
0.047752 -0.0009455 -0.0044478 2 -0.16556 0.16912 0.97159 0 255 0
0.048761 -0.0011466 -0.0060657 2 -0.31972 0.19817 0.92655 0 255 0
0.046921 0.00055466 -0.0046349 2 0.05337 0.00053025 -0.99858 0 255 0
0.046852 0.0025549 -0.0040354 2 -0.028673 0.41218 0.91065 0 255 0
0.044851 0.0014551 -0.0044917 2 -0.10117 -0.35413 -0.92971 0 255 0
0.048472 0.0011546 -0.0042834 2 0.1116 -0.00069272 0.99376 0 255 0
0.048812 0.0021551 -0.0035881 2 0.067734 0.00051165 -0.9977 0 255 0
0.045802 -0.0012445 -0.0042766 2 -0.071269 -0.00049155 0.99746 0 255 0
0.045951 -0.00064707 -0.0073251 2 0 0 0 0 255 0
0.046622 0.00055305 -0.0071699 2 0.30018 -0.21252 -0.92991 0 255 0
0.048471 0.00035315 -0.0061327 2 -0.43689 0.33499 0.83481 0 255 0
0.046112 0.0020532 -0.00667 2 0.04164 -0.41825 -0.90737 0 255 0
0.049051 -0.0011455 -0.0041517 2 -0.055538 -0.00050316 0.99846 0 255 0
0.045321 5.5567e-05 -0.0043847 2 0.056079 0.00056946 -0.99843 0 255 0
0.045942 0.0023542 -0.0048593 2 -0.11156 0.00060338 -0.99377 0 255 0
0.044833 0.0030536 -0.0069598 2 -0.10081 0.35927 -0.92777 0 255 0
0.044942 0.0027553 -0.0044696 2 -0.066881 -0.026421 0.99741 0 255 0
0.047771 0.00025476 -0.0038267 2 -0.034141 0.73988 -0.67187 0 255 0
0.045882 0.0010545 -0.0048744 2 0.11125 -0.00091234 0.9938 0 255 0
0.047232 0.0014552 -0.0039486 2 -0.19766 0.23431 0.95185 0 255 0
0.047143 0.0026528 -0.0070515 2 0.090295 -0.40409 -0.91025 0 255 0
0.044371 -0.00014532 -0.0052185 2 -0.22203 -0.00065459 0.97504 0 255 0
0.046471 -0.0014468 -0.0065904 2 0.12847 -0.32859 -0.93569 0 255 0
0.046712 -0.00054466 -0.0040671 2 0.053447 0.00067691 -0.99857 0 255 0
0.053562 0.0019525 -0.0049718 2 -0.35024 0.31876 0.88075 0 255 0
0.049803 0.0017543 -0.0039777 2 -0.3209 -0.4019 0.85762 0 255 0
0.052031 0.0012525 -0.0053213 2 -0.060233 -0.0010681 0.99818 0 255 0
0.050051 -0.0014472 -0.0063904 2 -0.11154 0.00071249 -0.99377 0 255 0
0.052282 -0.00014754 -0.0052633 2 0.65767 0.70656 -0.26125 0 255 0
0.050902 0.0022539 -0.0037291 2 0.081055 0.1992 -0.9766 0 255 0
0.053582 -0.00034777 -0.0049681 2 -0.084556 0.031961 0.99591 0 255 0
0.051192 -0.00094768 -0.0055127 2 -0.22208 -0.00068851 0.97503 0 255 0
0.053082 0.00065206 -0.0050808 2 0.053383 0.00054361 -0.99857 0 255 0
0.051652 0.0025521 -0.0060243 2 0 0 0 0 255 0
0.050642 0.0006525 -0.0062529 2 -0.25343 -0.87318 0.41634 0 255 0
0.050391 -0.00034528 -0.0038461 2 -0.09738 0.35986 -0.92791 0 255 0
0.049961 -0.00034731 -0.0057931 2 -0.040242 -0.00056086 0.99919 0 255 0
0.052622 0.0026521 -0.0051853 2 -0.15773 -0.2283 0.96072 0 255 0
0.052412 0.0022539 -0.0033831 2 0.056167 -0.98616 -0.15601 0 255 0
0.050663 0.0031528 -0.0056318 2 -0.23962 -0.057382 0.96916 0 255 0
0.053501 -0.0014483 -0.0056023 2 -0.35794 0.16559 0.91894 0 255 0
0.050903 0.0031549 -0.0031098 2 0 0 0 0 255 0
0.050682 0.0017528 -0.0056287 2 -0.25875 -0.14695 0.9547 0 255 0
0.053672 0.0022533 -0.003096 2 0 0 0 0 255 0
0.051271 -0.0010453 -0.0036457 2 0.050401 0.00047637 -0.99873 0 255 0
0.053302 0.00015384 -0.0025663 2 -0.073287 0.00042661 -0.99732 0 255 0
0.053291 -0.0014459 -0.0025693 2 -0.45459 -0.3137 0.83363 0 255 0
0.050351 0.00095448 -0.0032372 2 -0.17975 0.43515 0.88223 0 255 0
0.051602 0.00025444 -0.0035706 2 -0.11152 0.00062806 -0.99377 0 255 0
0.052721 -0.00074603 -0.0033138 2 0.013434 0.94047 0.33962 0 255 0
0.053302 0.0032544 -0.0025628 2 -0.24349 0.42816 0.87029 0 255 0
0.052532 0.0012543 -0.0027395 2 0.12262 0.18808 -0.97447 0 255 0
0.049421 0.00025468 -0.0040657 2 -0.25265 0.42442 0.8695 0 255 0
0.051412 0.0013547 -0.0029953 2 -0.031596 -0.00063962 0.9995 0 255 0
0.050053 0.0023521 -0.0063882 2 -0.096176 -0.34941 -0.93202 0 255 0
0.058152 0.0013536 -0.0014589 2 -0.13848 0.43794 0.88827 0 255 0
0.054393 0.0027541 -0.0023146 2 0.12053 0.21301 -0.96958 0 255 0
0.054562 0.0010545 -0.0022779 2 0.064449 -0.18531 -0.98056 0 255 0
0.056122 0.0018534 -0.0025391 2 0.11153 -0.00092494 0.99377 0 255 0
0.057962 0.0024532 -0.0021173 2 -0.12731 -0.013823 -0.99176 0 255 0
0.055621 0.00035386 -0.0020353 2 -0.3943 0.25034 0.88423 0 255 0
0.056752 0.0032521 -0.0048607 2 0.25357 0.41998 -0.87139 0 255 0
0.058772 0.0026517 -0.0037822 2 0.47125 0.0038713 0.88199 0 255 0
0.057741 -0.00074828 -0.0040196 2 0.10876 0.90202 0.41776 0 255 0
0.056113 0.0019522 -0.0043897 2 -0.32643 0.0010567 -0.94522 0 255 0
0.058962 0.0029531 -0.001889 2 0.11135 -0.00056471 0.99379 0 255 0
0.057462 0.0016511 -0.0046995 2 -0.2742 -0.41357 0.8682 0 255 0
0.058942 -0.00034909 -0.004362 2 0.095833 -0.073126 -0.9927 0 255 0
0.055523 0.002552 -0.0051411 2 -0.30134 -0.2125 0.92954 0 255 0
0.054861 -0.00054639 -0.0028274 2 0.073146 -0.34152 -0.93703 0 255 0
0.057272 0.0014537 -0.002275 2 0.069015 -0.33903 0.93824 0 255 0
0.057211 0.00035333 -0.0022904 2 0.067503 -0.98832 0.13666 0 255 0
0.058441 -0.0011462 -0.0013942 2 0.28714 0.61165 0.73718 0 255 0
0.058612 0.0013516 -0.0044372 2 0.21375 0.16196 0.96336 0 255 0
0.055353 0.0034539 -0.0027133 2 0.15725 0.23591 -0.95897 0 255 0
0.056922 0.00065219 -0.0042058 2 0.18354 -0.30852 0.93335 0 255 0
0.056763 0.0024537 -0.0017761 2 0.24034 -0.43506 -0.86773 0 255 0
0.056742 -0.00034813 -0.004865 2 0 0 0 0 255 0
0.058233 0.0035511 -0.0045218 2 -0.55408 -0.76613 -0.32565 0 255 0
0.055072 -0.00034799 -0.0052451 2 0.20289 -0.39453 -0.89621 0 255 0
0.055791 0.00065225 -0.0050798 2 -0.057034 -0.0012564 0.99837 0 255 0
0.054372 0.0011516 -0.0054042 2 0.096263 -0.20607 -0.9738 0 255 0
0.059121 0.0008529 -0.0018552 2 0.36484 -0.36954 -0.85458 0 255 0
0.055921 -0.0011477 -0.0044344 2 0 0 0 0 255 0
0.057442 0.002652 -0.0040872 2 -0.055287 0.18419 0.98134 0 255 0
0.058212 5.3825e-05 -0.0014456 2 0.85439 0.2863 -0.43364 0 255 0
0.054342 0.0029519 -0.0047935 2 -0.056486 0.18342 0.98142 0 255 0
0.056491 -0.00044588 -0.0018374 2 -0.22874 0.058484 0.97174 0 255 0
0.060941 -0.0013469 -0.0014407 2 -0.35308 0.37725 0.85616 0 255 0
0.061362 0.0020516 -0.0031926 2 0.002512 0.078597 -0.99691 0 255 0
0.063402 0.00055296 -0.00087859 2 -0.23162 -0.037296 0.97209 0 255 0
0.059521 -0.00034647 -0.0017642 2 -0.1113 0.00072423 -0.99379 0 255 0
0.063112 0.0015511 -0.0034103 2 -0.22539 -0.014688 0.97415 0 255 0
0.062262 0.00095314 -0.00052322 2 -0.21698 0.23614 0.94718 0 255 0
0.063801 -0.00094896 -0.0032554 2 -0.2758 -0.020119 0.96101 0 255 0
0.060712 0.0032512 -0.0039575 2 -0.018858 0.00019475 0.99982 0 255 0
0.062952 0.0027513 -0.0034471 2 0.076507 0.00041817 -0.99707 0 255 0
0.063782 0.0015536 -0.00017482 2 0.031778 0.00068161 -0.99949 0 255 0
0.063783 0.0027528 -0.0007903 2 0.11148 -0.00075364 0.99377 0 255 0
0.060782 5.3816e-05 -0.0008609 2 -0.060878 -0.0031994 -0.99814 0 255 0
0.063581 -0.0010469 -0.00083811 2 0.10303 0.03667 0.99401 0 255 0
0.061572 0.0033533 -0.0006775 2 -0.36458 -0.19049 0.91149 0 255 0
0.064152 0.0024505 -0.0031729 2 -0.046895 -0.00063464 0.9989 0 255 0
0.062431 0.00025127 -0.0029497 2 -0.36284 0.17523 0.91524 0 255 0
0.059642 0.0035537 -0.0011172 2 -0.5083 0.0062629 -0.86115 0 255 0
0.060882 0.0013528 -0.0014538 2 -0.077986 0.00050811 -0.99696 0 255 0
0.060372 0.0019516 -0.0040346 2 0.10039 0.34959 0.93151 0 255 0
0.062621 -0.0010481 -0.0029064 2 -0.059342 -0.1842 0.98109 0 255 0
0.060201 -0.00074842 -0.0040767 2 0.011232 -0.61995 0.78457 0 255 0
0.062653 0.0030535 -0.00043175 2 0.29117 -0.0039006 0.95666 0 255 0
0.062702 0.0019524 -0.0010368 2 0.29712 -0.21252 -0.93089 0 255 0
0.062482 -0.00034746 -0.0010894 2 -0.22548 0.026757 0.97388 0 255 0
0.061422 0.00095189 -0.0031808 2 0.092455 0.20489 -0.97441 0 255 0
0.061561 -0.00044905 -0.0037648 2 0.016487 0.7797 0.62593 0 255 0
0.059352 0.0035518 -0.0042658 2 -0.058817 -0.00063606 0.99827 0 255 0
0.059512 0.001953 -0.0017639 2 0.4158 0.34793 -0.84027 0 255 0
0.063592 0.00015105 -0.0026857 2 -0.065674 -0.00046213 0.99784 0 255 0
0.061572 0.0021532 -0.00067912 2 0.26717 0.35825 -0.89458 0 255 0
0.060302 0.002254 -0.00096723 2 -0.046875 -0.00069433 0.9989 0 255 0
0.059882 0.00095149 -0.0041479 2 0.39715 0.36307 -0.84288 0 255 0
0.066572 0.00095164 -0.0020062 2 0.22179 0.23526 -0.94628 0 255 0
0.064722 0.00045289 -0.00057788 2 -0.30293 0.39877 0.86557 0 255 0
0.067922 -0.00014733 0.00015024 2 -0.39149 -0.28029 0.87644 0 255 0
0.068362 0.002553 0.00086917 2 -0.1117 0.00060267 -0.99375 0 255 0
0.066782 0.0027532 0.00050978 2 0.043821 0.99868 0.026972 0 255 0
0.068911 -0.00084725 0.00099209 2 0.11135 -0.00085818 0.99379 0 255 0
0.065822 0.0029521 -0.0002262 2 0.25106 0.32699 -0.91107 0 255 0
0.067781 -0.0014497 -0.0023439 2 0.11888 0.47958 -0.8694 0 255 0
0.067572 0.0016514 -0.0017782 2 -0.04052 0.034645 0.99858 0 255 0
0.068471 -0.00094869 -0.0015741 2 0.5439 0.18184 -0.81921 0 255 0
0.065881 0.00085304 -0.00031275 2 -0.30197 -0.94388 -0.13377 0 255 0
0.065961 -4.9153e-05 -0.0021463 2 0.4297 -0.33592 -0.83816 0 255 0
0.065932 0.0021514 -0.0021504 2 0.21926 -0.23267 -0.94753 0 255 0
0.064762 0.0021526 -0.00056723 2 -0.21764 -0.24792 0.94402 0 255 0
0.066252 0.0032507 -0.0024586 2 -0.11138 0.00077433 -0.99378 0 255 0
0.067622 5.0194e-05 -0.0023836 2 -0.44339 0.39366 0.80526 0 255 0
0.066682 0.0016533 0.00048618 2 0.063749 0.08897 -0.99399 0 255 0
0.068262 0.00095211 0.00022874 2 0.080021 0.00066162 -0.99679 0 255 0
0.066702 -0.00084925 -0.0025936 2 0.067952 0.0090297 0.99765 0 255 0
0.065412 -0.00064951 -0.002887 2 0.080098 0.00053807 -0.99679 0 255 0
0.066571 -0.000648 -0.00015812 2 -0.11146 0.00090884 -0.99377 0 255 0
0.066781 0.00035302 0.00050814 2 0.067467 -0.37328 0.92527 0 255 0
0.064751 -0.0013475 -0.00057206 2 0.56878 0.10367 -0.81593 0 255 0
0.065592 0.0018534 0.00023601 2 0.12084 -0.22069 -0.96782 0 255 0
0.064631 0.00075137 -0.0024482 2 -0.41269 -0.11219 0.90393 0 255 0
0.068752 0.00075034 -0.0015094 2 -0.45083 -0.31054 0.83685 0 255 0
0.065571 -0.001147 0.00023012 2 0.090836 -0.35533 0.93031 0 255 0
0.068012 0.0027506 -0.0016764 2 0.22784 0.61581 0.75423 0 255 0
0.073392 0.0023527 0.0023354 2 -0.18085 -0.055427 0.98195 0 255 0
0.073022 0.0026504 -0.00016758 2 -0.42711 -0.33966 0.83798 0 255 0
0.069462 0.0017524 0.0011204 2 -0.07057 -0.00056002 0.99751 0 255 0
0.070582 0.0011506 -0.0013774 2 0.052434 0.36336 -0.93018 0 255 0
0.072621 -0.0013499 -0.00060925 2 -0.01204 -0.00061743 0.99993 0 255 0
0.073962 0.0019507 2.4459e-05 2 0.061655 0.30591 0.95006 0 255 0
0.069431 -0.00034976 -0.001902 2 0.48135 0.16916 0.86005 0 255 0
0.073561 -0.00074797 0.0020567 2 0.12662 0.16777 -0.97766 0 255 0
0.072492 0.0008507 -0.00073587 2 -0.092414 -0.20221 0.97498 0 255 0
0.071192 0.0024528 0.0015533 2 0.10021 -0.043505 -0.99401 0 255 0
0.070951 -0.00034728 0.0014578 2 -0.10029 0.3497 -0.93148 0 255 0
0.069612 0.0032506 -0.0012957 2 0.090216 0.35534 0.93037 0 255 0
0.071422 0.00095265 0.0015649 2 -0.11081 -0.34888 -0.93059 0 255 0
0.073562 0.00045209 0.0020535 2 -0.040237 -0.00061665 0.99919 0 255 0
0.069582 0.00045231 0.00059835 2 0 0 0 0 255 0
0.070753 0.0032508 -0.00088988 2 -0.033782 -0.00066159 0.99943 0 255 0
0.070061 -0.0012482 0.00085881 2 0.28321 0.21886 -0.93374 0 255 0
0.073132 0.0034527 0.0024696 2 0.14769 -0.22663 -0.96272 0 255 0
0.072312 0.0025521 0.0019961 2 -0.35507 -0.17476 0.91836 0 255 0
0.072531 -4.7336e-05 0.0018183 2 -0.066523 -0.00069614 0.99779 0 255 0
0.071481 -0.00084932 -0.0011301 2 -0.21783 -0.2308 0.94831 0 255 0
0.069811 -0.0013495 -0.0012685 2 -0.058458 -0.00055936 0.99829 0 255 0
0.072541 0.0012524 0.001812 2 -0.070207 -4.6035e-05 0.99753 0 255 0
0.070013 0.0031528 0.001278 2 0.12787 -0.98066 0.14818 0 255 0
0.073651 -0.00054924 -0.0003853 2 0.18571 0.066594 -0.98034 0 255 0
0.071893 0.0035503 -0.00041097 2 -0.093929 -0.20503 0.97424 0 255 0
0.071802 0.001851 -0.00078922 2 0.050377 0.00051739 -0.99873 0 255 0
0.069982 0.0021504 -0.0012291 2 -0.22237 -0.00054521 0.97497 0 255 0
0.070532 -4.9855e-05 -0.0015292 2 -0.069681 -0.00082468 0.99757 0 255 0
0.077802 0.0023508 0.0015325 2 -0.11148 0.00074976 -0.99377 0 255 0
0.077922 0.0026522 0.0040684 2 0.079731 0.012842 -0.99673 0 255 0
0.076212 0.00035182 0.0030322 2 -0.064869 -0.0008179 0.99789 0 255 0
0.075161 0.00085206 0.0026882 2 -0.21925 -0.23151 0.9478 0 255 0
0.074612 0.00055073 -1.7392e-05 2 0.35598 0.29412 -0.88701 0 255 0
0.077841 -0.0014477 0.0037864 2 0.42657 0.68572 0.58978 0 255 0
0.079151 -4.8071e-05 0.0040367 2 0.19309 -0.43309 -0.88043 0 255 0
0.076972 0.0012518 0.0034402 2 -0.0054545 0.00062491 -0.99998 0 255 0
0.075831 0.00045078 0.00043292 2 0.056243 0.00051057 -0.99842 0 255 0
0.076531 -0.0010492 0.00077144 2 0.12601 0.2505 0.95988 0 255 0
0.078691 -0.0013492 0.0016535 2 -0.11143 0.00072978 -0.99378 0 255 0
0.078462 0.001152 0.0039807 2 0.28911 -0.21529 -0.93277 0 255 0
0.075762 0.0033521 0.0034159 2 -0.031571 -0.00053779 0.9995 0 255 0
0.077351 -4.824e-05 0.0033432 2 -0.03161 -0.00065683 0.9995 0 255 0
0.079172 0.0019523 0.0044178 2 -0.0976 0.21305 0.97215 0 255 0
0.076902 0.0016508 0.0010586 2 -0.065197 0.032243 0.99736 0 255 0
0.077921 -0.00044977 0.0011976 2 -0.05857 -0.00063443 0.99828 0 255 0
0.074592 0.0031531 0.0029409 2 0.11146 -0.00065078 0.99377 0 255 0
0.075491 -0.00074742 0.0027728 2 -0.22229 -0.00037499 0.97499 0 255 0
0.075142 0.0027508 0.0006209 2 -0.033351 0.001083 -0.99944 0 255 0
0.075251 -0.0006497 0.00022841 2 0.2815 -0.22124 -0.93371 0 255 0
0.075442 0.0021518 0.0030599 2 0.32139 0.20221 -0.9251 0 255 0
0.076462 0.0028505 0.0011313 2 0.43257 0.0017704 0.9016 0 255 0
0.077621 0.00065036 0.0011371 2 -0.24497 0.0016905 -0.96953 0 255 0
0.078792 0.0010506 0.0016609 2 0.053346 0.00063118 -0.99858 0 255 0
0.075492 0.0015509 0.00051839 2 -0.42075 -0.2974 0.85705 0 255 0
0.080981 -0.0013492 0.0025259 2 -0.55143 0.593 0.58675 0 255 0
0.082822 0.00034998 0.0030868 2 -0.10732 -0.34675 -0.9318 0 255 0
0.081712 0.0031529 0.0056177 2 0.22786 -0.27514 0.93401 0 255 0
0.080602 -0.00024811 0.004616 2 0.057331 0.00081777 -0.99836 0 255 0
0.080222 0.0015522 0.0047444 2 0.11134 -0.00055549 0.99379 0 255 0
0.079542 0.0030523 0.0047656 2 -0.11179 0.00086621 -0.99374 0 255 0
0.080872 0.0020505 0.0026511 2 -0.22204 -0.00029806 0.97504 0 255 0
0.082601 0.0010523 0.0055652 2 0.22189 0.00073518 -0.97508 0 255 0
0.083972 0.0005524 0.0059967 2 -0.35036 -0.38532 0.85369 0 255 0
0.079562 0.0030511 0.0023329 2 0.061345 -0.99371 0.093589 0 255 0
0.079681 -0.00025014 0.0018272 2 0.055236 -0.10122 -0.99333 0 255 0
0.079582 0.0017503 0.0021034 2 0.039192 -0.99365 0.10542 0 255 0
0.083472 -0.00074744 0.0058259 2 0.02065 -0.74422 0.66762 0 255 0
0.082092 0.0033504 0.003376 2 0.051387 0.00033669 -0.99868 0 255 0
0.082122 0.0020511 0.003143 2 -0.022486 -0.7803 -0.62499 0 255 0
0.081022 0.0003498 0.0023886 2 -0.21842 0.01932 0.97566 0 255 0
0.082461 -0.00084956 0.0030199 2 -0.10108 0.20591 0.97334 0 255 0
0.082822 0.0034526 0.0061094 2 -0.4123 -0.20883 0.88679 0 255 0
0.081701 -4.8059e-05 0.0050116 2 0.45702 -0.19255 -0.86836 0 255 0
0.081382 0.0013525 0.0051597 2 0.44811 0.31082 -0.83821 0 255 0
0.083352 0.0023522 0.0061064 2 0.44172 0.32606 -0.83579 0 255 0
0.083262 0.0021506 0.0035977 2 0.060812 0.43661 -0.89759 0 255 0
0.088271 -4.8026e-05 0.0076922 2 -0.38904 0.35405 0.85046 0 255 0
0.087241 -0.00044747 0.0072423 2 -0.22242 -0.00045011 0.97495 0 255 0
0.085922 0.00075231 0.0067977 2 0.040239 0.00073791 -0.99919 0 255 0
0.086801 -0.0010498 0.0047291 2 0.037258 0.99059 -0.13169 0 255 0
0.085941 -0.00044927 0.0042776 2 -0.33276 0.19032 0.92361 0 255 0
0.087301 0.0011527 0.007402 2 0.076626 0.0006225 -0.99706 0 255 0
0.088331 0.0015521 0.0079062 2 -0.50438 0.24642 0.82758 0 255 0
0.087971 5.0214e-05 0.0051308 2 -0.058792 -0.0003858 0.99827 0 255 0
0.084382 0.0015527 0.0063646 2 -0.00013844 0.66282 0.74878 0 255 0
0.084262 0.0027513 0.0040917 2 0.0014344 -0.40999 -0.91209 0 255 0
0.086781 0.0014508 0.0048238 2 0.087392 -0.0015869 0.99617 0 255 0
0.085171 -0.00024815 0.0063889 2 -0.40112 0.035677 0.91533 0 255 0
0.089201 -0.00044972 0.0058092 2 0.28861 0.21482 -0.93304 0 255 0
0.087952 0.0013507 0.0052723 2 -0.4438 -0.27252 0.85368 0 255 0
0.088052 0.002751 0.0057442 2 0.22245 -4.7123e-05 -0.97495 0 255 0
0.085182 0.0033503 0.0045614 2 0.11139 -0.0004804 0.99378 0 255 0
0.084341 -0.00084992 0.0037363 2 0.040235 0.000573 -0.99919 0 255 0
0.086432 0.0021525 0.0072635 2 -0.1331 -0.63547 -0.76057 0 255 0
0.087802 0.0029531 0.0080902 2 0.31206 -0.20522 -0.92763 0 255 0
0.088992 0.0019503 0.0060051 2 -0.11155 0.00055098 -0.99377 0 255 0
0.084442 0.00045088 0.003724 2 -0.1116 0.00051906 -0.99376 0 255 0
0.085682 0.00075016 0.0042685 2 0.070256 0.18929 -0.97941 0 255 0
0.084392 0.0035526 0.0067413 2 -0.31913 0.3922 0.86275 0 255 0
0.086832 0.00035075 0.0046379 2 0.17184 0.0020365 0.98513 0 255 0
0.084951 0.0016511 0.004162 2 -0.0021804 -0.615 0.78851 0 255 0
0.085872 0.0023513 0.0046422 2 -0.34712 0.38781 0.85389 0 255 0
0.085152 0.0026526 0.006854 2 0.026951 -0.99924 -0.028159 0 255 0
0.089102 0.0031524 0.0088941 2 -0.07164 -0.00042007 0.99743 0 255 0
0.091121 0.00055139 0.0071814 2 -0.56321 -0.14602 0.81331 0 255 0
0.092482 5.1331e-05 0.0081148 2 0.081459 -0.93133 0.35494 0 255 0
0.090482 0.0015528 0.009252 2 0.022968 0.28904 0.95704 0 255 0
0.090202 0.0034533 0.0096016 2 0.22764 -0.00060364 0.97375 0 255 0
0.089481 0.00025295 0.008379 2 0.078022 -0.36623 0.92725 0 255 0
0.091811 0.00035265 0.010044 2 0.10855 0.21452 -0.97068 0 255 0
0.094071 0.0011516 0.0093229 2 -0.29428 0.028615 0.95529 0 255 0
0.093791 -0.0011482 0.0091088 2 0.067792 -0.99717 0.032491 0 255 0
0.089462 0.0020529 0.0087153 2 0.056117 0.00059806 -0.99842 0 255 0
0.092881 -0.00024704 0.010785 2 -0.07138 -0.00051326 0.99745 0 255 0
0.093502 0.003554 0.011683 2 0.064374 -0.19213 -0.97926 0 255 0
0.092142 0.0034539 0.010788 2 -0.23715 -4.4287e-05 -0.97147 0 255 0
0.093661 -4.7864e-05 0.0089509 2 0.21372 -0.17954 -0.96025 0 255 0
0.090941 -0.00074921 0.0070641 2 -0.0033447 -0.0038586 0.99999 0 255 0
0.09373 -0.0012464 0.011449 2 0.40511 0.00045296 0.91427 0 255 0
0.092251 0.0015529 0.01046 2 0.14566 -0.43699 -0.88759 0 255 0
0.093402 0.0028525 0.009097 2 0.2362 -0.21872 -0.94676 0 255 0
0.091772 0.0022512 0.0078868 2 -0.25139 -0.23774 0.93823 0 255 0
0.092482 0.0033522 0.0085715 2 0.062248 0.00023693 -0.99806 0 255 0
0.092221 -0.0011487 0.0079975 2 0.5278 -0.21381 -0.82202 0 255 0
0.093771 0.00045398 0.011443 2 0.14965 0.29121 -0.94489 0 255 0
0.093172 0.0021537 0.011187 2 0.043954 0.99854 -0.031629 0 255 0
0.089761 -0.001349 0.0063196 2 0.45327 -0.29389 -0.84153 0 255 0
0.091162 0.002453 0.009898 2 0.022381 0.001058 -0.99975 0 255 0
0.090611 0.0019516 0.0070349 2 0.21026 0.20566 -0.95576 0 255 0
0.092872 0.0015516 0.0084913 2 0.11158 -0.00061216 0.99376 0 255 0
0.089761 0.00065119 0.0062252 2 0.19376 0.23134 -0.95339 0 255 0
0.090461 -0.00064697 0.0090922 2 0.11131 -0.00061171 0.99379 0 255 0
0.089892 0.0030517 0.0068816 2 -0.070223 -0.00051314 0.99753 0 255 0
0.094261 0.001654 0.011866 2 0.32977 0.19814 -0.92303 0 255 0
0.096232 0.0024533 0.011454 2 0.059249 0.00069256 -0.99824 0 255 0
0.095352 0.0024524 0.010324 2 0 0 0 0 255 0
0.096551 -0.00014749 0.011269 2 0.30424 -0.20582 -0.9301 0 255 0
0.096122 0.0013519 0.010788 2 -0.11151 0.00074932 -0.99377 0 255 0
0.095371 -0.00024822 0.010172 2 -0.063782 0.38114 -0.92231 0 255 0
0.096441 0.0011535 0.011944 2 0.34135 0.19268 -0.91997 0 255 0
0.094561 -0.00024614 0.011976 2 0.35411 -0.16961 -0.91969 0 255 0
0.094362 0.002552 0.0096766 2 -0.11898 -0.71999 0.68372 0 255 0
0.095702 0.0034526 0.010767 2 -0.21277 0.59681 -0.77366 0 255 0
0.094571 0.0029539 0.012285 2 0.30291 0.20516 -0.93067 0 255 0
0.096701 5.4643e-05 0.013485 2 0.22259 0.00044804 -0.97492 0 255 0
0.095511 0.00055438 0.012681 2 0.25493 0.41681 -0.87252 0 255 0
0.095501 -0.0012464 0.012711 2 0.1091 -0.15623 0.98168 0 255 0
0.096372 0.002354 0.013054 2 0 0 0 0 255 0
0.096561 -0.0011461 0.013272 2 -0.11157 0.00059615 -0.99376 0 255 0
0.095222 0.0018539 0.012562 2 0.1046 -0.16157 0.9813 0 255 0
0.096531 0.001154 0.013085 2 0.15131 -0.2296 -0.96146 0 255 0
0.0061027 0.0042655 -0.0048067 2 0.076148 0.00041154 -0.9971 0 255 0
0.008833 0.0051641 -0.0057563 2 0.020061 0.0065542 0.99977 0 255 0
0.0061728 0.0050676 -0.00195 2 -0.27462 0.22096 0.93582 0 255 0
0.007333 0.0051649 -0.0053344 2 -0.21231 0.33514 0.91794 0 255 0
0.0090927 0.0041636 -0.0063747 2 0.078544 0.92891 0.36189 0 255 0
0.0079729 0.0051658 -0.0038263 2 0.11153 -0.00056065 0.99377 0 255 0
0.006793 0.0052659 -0.0040574 2 -0.073034 -0.1993 0.97721 0 255 0
0.0054829 0.0052667 -0.0033855 2 0.11153 -0.00053931 0.99377 0 255 0
0.0065925 0.0038674 -0.0021625 2 0.39233 0.30875 0.86647 0 255 0
0.0080627 0.0043664 -0.0029092 2 -0.11164 0.00061419 -0.99376 0 255 0
0.0049228 0.0047663 -0.0042562 2 0.3997 0.35339 -0.84579 0 255 0
0.0078326 0.0039644 -0.0056105 2 -0.48725 0.85521 0.17664 0 255 0
0.0069029 0.0052667 -0.0028924 2 -0.09511 0.36854 0.92473 0 255 0
0.013583 0.0054621 -0.0068475 2 -0.03415 -0.0031158 0.99941 0 255 0
0.011303 0.0050627 -0.0063342 2 0.11159 -0.00077662 0.99376 0 255 0
0.011413 0.0049634 -0.0051461 2 -0.11698 0.39056 -0.91312 0 255 0
0.012073 0.0049618 -0.0076451 2 -0.048985 -0.00062991 0.9988 0 255 0
0.014103 0.0042629 -0.0059456 2 0.16657 -0.15663 0.97351 0 255 0
0.012212 0.0036632 -0.0057221 2 0.22207 0.00027569 -0.97504 0 255 0
0.0092529 0.0051653 -0.0037843 2 0.059131 0.0010068 -0.99825 0 255 0
0.013633 0.0054624 -0.0056945 2 0.1008 -0.35855 0.92806 0 255 0
0.013432 0.0040608 -0.0085964 2 -0.019143 -0.00086899 0.99982 0 255 0
0.010373 0.0049629 -0.0071851 2 -0.034101 -0.37665 -0.92572 0 255 0
0.010083 0.0040649 -0.0041975 2 0.04992 0.99875 0.0034326 0 255 0
0.010003 0.0050648 -0.0049832 2 0 0 0 0 255 0
0.013273 0.0051611 -0.0080703 2 0.068951 -0.1918 -0.979 0 255 0
0.011243 0.003664 -0.0050292 2 0.13292 -0.87368 0.468 0 255 0
0.012543 0.0050623 -0.0063051 2 -0.31089 0.38145 0.87054 0 255 0
0.018643 0.0050591 -0.008501 2 -0.54069 -0.84052 0.034183 0 255 0
0.014223 0.005761 -0.0078416 2 -0.073385 -0.371 -0.92573 0 255 0
0.016834 0.0078617 -0.0055821 2 0.056826 -0.98512 -0.16222 0 255 0
0.018794 0.0084625 -0.0047015 2 0.087733 0.36061 0.92859 0 255 0
0.015533 0.0055629 -0.0054675 2 0.33655 0.22303 -0.91487 0 255 0
0.016923 0.0048599 -0.008426 2 0.11158 -0.00058598 0.99376 0 255 0
0.017733 0.0061615 -0.0054329 2 0 0 0 0 255 0
0.018062 0.0038593 -0.0088952 2 -0.055687 -0.00061432 0.99845 0 255 0
0.019033 0.0060618 -0.0056368 2 -0.030634 0.29056 -0.95636 0 255 0
0.016854 0.0079606 -0.0070092 2 0.076075 -0.18463 -0.97986 0 255 0
0.014713 0.006162 -0.00675 2 0.1948 -0.25362 -0.94749 0 255 0
0.015973 0.0072614 -0.0069127 2 -0.046896 -0.00063221 0.9989 0 255 0
0.018564 0.0061599 -0.0080678 2 0.13244 0.97856 0.15772 0 255 0
0.017994 0.0075601 -0.0074499 2 0.3022 -0.21221 -0.92933 0 255 0
0.015644 0.0068622 -0.0050814 2 -0.07247 -0.00044047 0.99737 0 255 0
0.016044 0.0055605 -0.0080554 2 -0.0079068 -0.0020757 0.99997 0 255 0
0.016313 0.0047621 -0.0058658 2 0.034897 0.00014408 -0.99939 0 255 0
0.018453 0.0048608 -0.0060319 2 0.10663 -0.36353 -0.92546 0 255 0
0.017263 0.0059603 -0.0080238 2 -0.066131 0.19121 0.97931 0 255 0
0.018624 0.0070622 -0.0052155 2 -0.34863 0.17495 0.9208 0 255 0
0.014983 0.0049604 -0.0082351 2 -0.11151 0.00076096 -0.99377 0 255 0
0.017783 0.0039612 -0.0063272 2 -0.34507 -0.18514 0.92014 0 255 0
0.014563 0.0038604 -0.0086673 2 0.080239 0.00055925 -0.99678 0 255 0
0.015733 0.0038599 -0.0086992 2 0.29624 -0.30762 -0.90423 0 255 0
0.017504 0.0082623 -0.0046094 2 0.10909 -0.35072 0.9301 0 255 0
0.015512 0.0039625 -0.0061483 2 0.080285 0.00032711 -0.99677 0 255 0
0.023603 0.0047575 -0.0091537 2 0.077875 0.19912 -0.97687 0 255 0
0.022783 0.0071605 -0.0056245 2 0.11146 -0.00082638 0.99377 0 255 0
0.021543 0.0052599 -0.0062081 2 -0.18299 0.23405 0.95484 0 255 0
0.022473 0.0061598 -0.0059827 2 0.17901 -0.22263 -0.95832 0 255 0
0.021393 0.0078592 -0.00773 2 -0.26692 -0.42702 0.86395 0 255 0
0.020393 0.006261 -0.0057039 2 0.013109 -0.00098887 0.99991 0 255 0
0.019762 0.004761 -0.0062048 2 0.2191 -0.23174 -0.94778 0 255 0
0.021543 0.0062586 -0.0083398 2 -0.071318 -0.00055263 0.99745 0 255 0
0.022574 0.0083587 -0.0076693 2 0.080413 -0.00068907 0.99677 0 255 0
0.022883 0.0069582 -0.0082483 2 0.0044389 -0.00095826 -0.99999 0 255 0
0.022673 0.0056578 -0.0087074 2 0.31925 -0.19849 -0.92664 0 255 0
0.023473 0.0040589 -0.0068971 2 -0.17094 0.34816 0.92172 0 255 0
0.022263 0.0039593 -0.0067901 2 0.097494 -0.9797 -0.17512 0 255 0
0.021163 0.0036595 -0.0067899 2 -0.33889 0.18269 0.92291 0 255 0
0.020823 0.0080613 -0.0050762 2 -0.092549 -0.42988 0.89812 0 255 0
0.023603 0.0056595 -0.0062754 2 0.080117 0.00059091 -0.99679 0 255 0
0.021513 0.004758 -0.0089207 2 -0.055661 -0.00061241 0.99845 0 255 0
0.020323 0.0054593 -0.0085202 2 0.0031534 0.0010153 -0.99999 0 255 0
0.022573 0.0036576 -0.0094569 2 0.080479 0.00049398 -0.99676 0 255 0
0.021523 0.0068608 -0.0055893 2 0.33963 -0.18147 -0.92289 0 255 0
0.019904 0.0074595 -0.0077007 2 0.068475 0.00048217 -0.99765 0 255 0
0.023434 0.00816 -0.0053272 2 -0.022025 0.00024997 0.99976 0 255 0
0.028573 0.0038564 -0.0091208 2 0.068345 -0.21734 0.97371 0 255 0
0.025854 0.0076593 -0.0057937 2 -0.095454 0.022549 0.99519 0 255 0
0.026783 0.007057 -0.0086293 2 -0.54632 0.14716 0.82454 0 255 0
0.027063 0.0060585 -0.0063025 2 -0.072181 -0.19199 0.97874 0 255 0
0.024543 0.0067602 -0.0059821 2 -0.12087 0.6631 -0.7387 0 255 0
0.029153 0.0079587 -0.0057919 2 -0.061404 -0.00029953 0.99811 0 255 0
0.028883 0.0064568 -0.0086068 2 0.2221 9.6698e-05 -0.97503 0 255 0
0.026593 0.004659 -0.0065885 2 -0.26423 -0.10895 0.95828 0 255 0
0.025613 0.0058588 -0.0064184 2 -0.066723 0.061028 0.99591 0 255 0
0.024303 0.0059581 -0.0087705 2 0.038413 0.00045449 -0.99926 0 255 0
0.028883 0.0041576 -0.00655 2 0.11171 -0.00039022 0.99375 0 255 0
0.024573 0.0045593 -0.0067235 2 -0.11164 0.00089989 -0.99376 0 255 0
0.028923 0.0052562 -0.0088259 2 -0.069625 0.49227 0.86765 0 255 0
0.025673 0.0055574 -0.0089662 2 -0.053505 -0.36397 -0.92987 0 255 0
0.024994 0.0071581 -0.0083974 2 0.30839 -0.39721 -0.86436 0 255 0
0.027843 0.0050587 -0.0064467 2 0.11175 -0.00057851 0.99374 0 255 0
0.028693 0.0065587 -0.0060959 2 -0.035117 0.38934 -0.92043 0 255 0
0.027243 0.0072586 -0.0060544 2 0.049159 0.99701 -0.059706 0 255 0
0.024714 0.0080602 -0.0054941 2 -0.17693 0.00069356 -0.98423 0 255 0
0.026563 0.0044567 -0.0091334 2 -0.073138 -0.0079432 -0.99729 0 255 0
0.027013 0.0055567 -0.0088912 2 0.10084 -0.21311 -0.97181 0 255 0
0.027524 0.0079574 -0.0083509 2 -0.071504 -0.00059873 0.99744 0 255 0
0.026083 0.007958 -0.008216 2 0.07108 -0.1908 -0.97905 0 255 0
0.025173 0.0041572 -0.0092721 2 -0.073173 -0.00064654 0.99732 0 255 0
0.030514 0.0075579 -0.0057776 2 0.05731 0.99818 -0.018651 0 255 0
0.033763 0.0074571 -0.0055624 2 0.054755 0.0011793 -0.9985 0 255 0
0.031393 0.0038552 -0.0089527 2 0.044333 0.16558 -0.9852 0 255 0
0.032624 0.0079581 -0.0055538 2 0.21722 -0.23466 -0.9475 0 255 0
0.032902 0.0042573 -0.0062721 2 0.11562 -0.18855 0.97524 0 255 0
0.033352 0.0040549 -0.0087589 2 -0.041711 0.37223 0.9272 0 255 0
0.031874 0.0074559 -0.0082035 2 0.094358 0.35879 0.92864 0 255 0
0.033883 0.0056574 -0.005915 2 0.082056 0.069616 -0.99419 0 255 0
0.030692 0.0046581 -0.0063394 2 0.012417 -0.00059278 0.99992 0 255 0
0.032053 0.0061561 -0.0084415 2 0.19279 -0.43575 -0.87918 0 255 0
0.031943 0.0049576 -0.0061875 2 0.027644 0.00065872 -0.99962 0 255 0
0.029924 0.0063578 -0.0060487 2 0.042838 -0.00072543 0.99909 0 255 0
0.033364 0.0077561 -0.0080346 2 0.10385 -0.35017 0.93092 0 255 0
0.031434 0.0067581 -0.0058769 2 -0.28545 -0.11346 0.95166 0 255 0
0.030844 0.0060558 -0.0085404 2 0.48953 -0.00038535 0.87198 0 255 0
0.033503 0.0054552 -0.0084909 2 0.042865 -0.00056612 0.99909 0 255 0
0.029274 0.0080568 -0.0082739 2 0.09128 -0.0015603 0.99582 0 255 0
0.030934 0.0083566 -0.0081011 2 0.29663 -0.026851 0.95461 0 255 0
0.032694 0.0065579 -0.0058298 2 0.67678 0.081041 0.73172 0 255 0
0.032273 0.0046553 -0.0087303 2 0 0 0 0 255 0
0.031472 0.0037573 -0.0064627 2 -0.069821 -0.00037486 0.99756 0 255 0
0.030253 0.0048557 -0.0088195 2 -0.17808 0.10034 0.97889 0 255 0
0.030444 0.0072561 -0.0083343 2 0.22217 0.00047792 -0.97501 0 255 0
0.029573 0.0052583 -0.0062959 2 0.26635 -0.42155 -0.8668 0 255 0
0.037642 0.0045541 -0.0083301 2 0.080158 0.00057148 -0.99678 0 255 0
0.038543 0.006656 -0.0053166 2 0.033067 -0.026454 -0.9991 0 255 0
0.036314 0.0067546 -0.0080028 2 -0.07319 -0.00049978 0.99732 0 255 0
0.037164 0.0079546 -0.0076646 2 -0.014708 -0.00051307 0.99989 0 255 0
0.035633 0.0038566 -0.0061557 2 -0.17362 -0.00076217 -0.98481 0 255 0
0.037832 0.004156 -0.0059208 2 0.13972 -0.74294 0.65461 0 255 0
0.038803 0.0056542 -0.0079989 2 -0.24548 0.1302 0.96061 0 255 0
0.037343 0.005755 -0.008118 2 0.097426 -0.35849 0.92844 0 255 0
0.038944 0.0073544 -0.0076372 2 0.15778 -0.2293 -0.96048 0 255 0
0.035893 0.0048546 -0.0084234 2 0.001126 -0.83135 -0.55574 0 255 0
0.037283 0.0058562 -0.0056151 2 -0.0054461 0.00062002 -0.99998 0 255 0
0.034523 0.0074553 -0.0080024 2 0.14414 -0.10839 0.98361 0 255 0
0.035054 0.0070574 -0.005551 2 0.14288 0.00059482 0.98974 0 255 0
0.036253 0.0077567 -0.0053165 2 -0.34022 0.22443 0.91316 0 255 0
0.034563 0.0045554 -0.0085912 2 0.11958 -0.087513 0.98895 0 255 0
0.037483 0.0074568 -0.0052573 2 0.08807 -0.36609 0.92641 0 255 0
0.038423 0.0082565 -0.0049999 2 0.071327 -0.37384 0.92475 0 255 0
0.034463 0.006155 -0.0082704 2 -0.33714 0.15812 0.92809 0 255 0
0.036533 0.0049562 -0.0058535 2 -0.044031 -0.00040774 0.99903 0 255 0
0.038843 0.0053558 -0.0055817 2 -0.049259 0.00062461 0.99879 0 255 0
0.035483 0.0036545 -0.0086925 2 -0.042742 0.040088 0.99828 0 255 0
0.035183 0.0056567 -0.005823 2 0.026041 -0.098133 -0.99484 0 255 0
0.034263 0.0043569 -0.0061491 2 -0.24934 0.10709 0.96248 0 255 0
0.036193 0.0062572 -0.0056145 2 0.012424 -0.00064212 0.99992 0 255 0
0.035813 0.0077553 -0.0078355 2 -0.13259 -0.21861 0.96676 0 255 0
0.038033 0.0066547 -0.0078646 2 0.080456 0.00074819 -0.99676 0 255 0
0.041863 0.0071543 -0.0073599 2 -0.17822 -0.047426 0.98285 0 255 0
0.039464 0.0075564 -0.0050493 2 -0.095139 -0.455 -0.8854 0 255 0
0.042293 0.0059551 -0.0050891 2 0.041044 0.40325 -0.91418 0 255 0
0.042434 0.0080555 -0.0046166 2 0.31327 -0.20241 -0.92784 0 255 0
0.041173 0.0047532 -0.0079592 2 -0.11169 0.0005493 -0.99375 0 255 0
0.039984 0.0064559 -0.0052325 2 0.042923 0.00093055 -0.99908 0 255 0
0.040573 0.0038561 -0.0054656 2 -0.49199 0.00011167 -0.87059 0 255 0
0.040243 0.0041533 -0.0081838 2 0.13496 -0.002071 0.99085 0 255 0
0.042983 0.0042536 -0.0073817 2 0.57837 0.81533 -0.027281 0 255 0
0.043623 0.0064558 -0.0047673 2 0.39 0.055505 0.91914 0 255 0
0.040034 0.006254 -0.0077593 2 -0.11148 0.00053876 -0.99377 0 255 0
0.043052 0.0045552 -0.004899 2 -0.060194 -0.28573 0.95642 0 255 0
0.043553 0.0056534 -0.0074968 2 0.42175 0.33697 -0.84177 0 255 0
0.043104 0.0067538 -0.0073096 2 0.23696 -0.28446 -0.92895 0 255 0
0.044084 0.0080532 -0.0068856 2 -0.085703 0.20243 0.97554 0 255 0
0.041473 0.0072558 -0.004896 2 0.38911 0.22101 -0.89428 0 255 0
0.041024 0.0081545 -0.0072477 2 0.42055 -0.27928 -0.86322 0 255 0
0.042273 0.0057532 -0.0076209 2 0.057376 -0.99774 0.035054 0 255 0
0.042434 0.0083543 -0.0070308 2 -0.058587 -0.00050319 0.99828 0 255 0
0.041533 0.0049554 -0.0054083 2 0.099979 -0.43107 -0.89676 0 255 0
0.044043 0.0051552 -0.0050794 2 -0.071604 -0.00059523 0.99743 0 255 0
0.040033 0.0051558 -0.0054955 2 0.30086 0.214 -0.92935 0 255 0
0.048214 0.0080547 -0.0037204 2 0.43462 0.33465 -0.83613 0 255 0
0.044604 0.006953 -0.0070097 2 -0.073055 -0.00071434 0.99733 0 255 0
0.048223 0.0080529 -0.0061854 2 -0.071253 -0.00055657 0.99746 0 255 0
0.046573 0.0078532 -0.0065604 2 0.066181 -0.00031082 0.99782 0 255 0
0.047553 0.0047534 -0.006341 2 -0.066774 0.18763 0.97997 0 255 0
0.049133 0.0052532 -0.0059793 2 -0.33203 -0.010088 -0.94321 0 255 0
0.048903 0.0064528 -0.0065433 2 0.035667 -0.99799 0.052428 0 255 0
0.048503 0.0063551 -0.0036551 2 0.34501 -0.0006747 0.9386 0 255 0
0.048463 0.0045545 -0.0042839 2 -0.013311 -0.0010391 0.99991 0 255 0
0.045773 0.0082556 -0.0041386 2 0.19406 -0.056776 0.97935 0 255 0
0.046414 0.0070552 -0.0041317 2 0.10553 0.13924 -0.98462 0 255 0
0.044213 0.0039548 -0.0046345 2 0.036393 -0.0014606 0.99933 0 255 0
0.047293 0.0062525 -0.0068461 2 0.28302 0.16654 0.94455 0 255 0
0.046762 0.0039526 -0.0071364 2 0.077681 0.13734 0.98747 0 255 0
0.044403 0.0044533 -0.0070579 2 -0.055663 -0.00059543 0.99845 0 255 0
0.045473 0.0052547 -0.0043474 2 0.051494 -0.38387 0.92194 0 255 0
0.045882 0.0041551 -0.0048706 2 0.056914 0.00080082 -0.99838 0 255 0
0.047313 0.0046542 -0.004544 2 0.087407 0.0014006 0.99617 0 255 0
0.047594 0.0062548 -0.0043281 2 0.4232 -0.34296 -0.83862 0 255 0
0.044873 0.0055531 -0.0069507 2 0.34332 0.18476 -0.92087 0 255 0
0.046053 0.0053525 -0.0072395 2 0.32089 0.20051 -0.92565 0 255 0
0.045874 0.0069526 -0.0068877 2 0.057951 0.0010208 -0.99832 0 255 0
0.046583 0.0056549 -0.0040957 2 -0.23911 0.17739 0.95466 0 255 0
0.045633 0.0039531 -0.0067775 2 -0.055546 -0.00048666 0.99846 0 255 0
0.044673 0.0071556 -0.0045279 2 -0.16384 0.23683 0.95763 0 255 0
0.049422 0.0036541 -0.0040652 2 0.29956 0.21491 -0.92956 0 255 0
0.050123 0.0080529 -0.0057514 2 -0.0017231 0.080039 0.99679 0 255 0
0.050773 0.0049524 -0.006222 2 -0.44835 0.30679 0.83956 0 255 0
0.052314 0.0081528 -0.0054014 2 -0.41893 0.33809 0.84273 0 255 0
0.052173 0.0062531 -0.005285 2 -0.046765 -0.00073617 0.99891 0 255 0
0.053763 0.0048521 -0.0049239 2 0.06634 0.19423 -0.97872 0 255 0
0.053542 0.0036517 -0.005591 2 -0.040186 -0.67017 -0.74112 0 255 0
0.049963 0.0080548 -0.0034584 2 0.39997 0.052678 0.91501 0 255 0
0.053653 0.007554 -0.0027739 2 0 0 0 0 255 0
0.049913 0.0061527 -0.0058009 2 -0.046075 -0.0011551 0.99894 0 255 0
0.050193 0.004754 -0.0038879 2 -0.050012 -0.00092455 0.99875 0 255 0
0.053463 0.0068525 -0.0049904 2 0.080017 0.00065023 -0.99679 0 255 0
0.051323 0.0066523 -0.0059893 2 0.11142 -0.00061334 0.99378 0 255 0
0.052353 0.0041544 -0.0027793 2 0.042809 -0.00054082 0.99909 0 255 0
0.053504 0.0080523 -0.0051523 2 0.20027 -0.42372 -0.88339 0 255 0
0.053094 0.0053522 -0.0056933 2 0.018133 0.0011643 -0.99983 0 255 0
0.050244 0.0059547 -0.0032598 2 0.11153 -0.00051942 0.99377 0 255 0
0.050193 0.0039523 -0.0063553 2 -0.54556 -0.3311 0.7699 0 255 0
0.049533 0.0069544 -0.0038256 2 0.040267 -0.95087 0.30694 0 255 0
0.053053 0.0053545 -0.0026197 2 -0.11131 0.00062578 -0.99379 0 255 0
0.052283 0.0038529 -0.0052622 2 -0.39722 0.003998 -0.91771 0 255 0
0.051913 0.0057547 -0.0028786 2 -0.33445 -0.18896 0.92328 0 255 0
0.052623 0.0081544 -0.0027167 2 -0.073455 0.42777 0.90089 0 255 0
0.051233 0.0069543 -0.0030328 2 0.43058 0.33557 -0.83785 0 255 0
0.051293 0.0042543 -0.0036386 2 -0.071163 -0.0004873 0.99747 0 255 0
0.054063 0.0048547 -0.0023904 2 -0.1116 0.00063888 -0.99376 0 255 0
0.049214 0.007353 -0.0059588 2 -0.33706 0.1905 0.92201 0 255 0
0.051973 0.0049525 -0.005331 2 0.31232 0.1356 -0.94026 0 255 0
0.052663 0.0068541 -0.0031714 2 -0.34363 -0.17805 0.92208 0 255 0
0.054283 0.0037542 -0.0029572 2 0.067838 0.00054522 -0.9977 0 255 0
0.055893 0.0059516 -0.0050526 2 0.07836 0.0043369 0.99692 0 255 0
0.058793 0.0045519 -0.0037775 2 -0.031618 -0.00066215 0.9995 0 255 0
0.058773 0.0056514 -0.0043253 2 -0.057522 7.8018e-06 0.99835 0 255 0
0.055273 0.0045544 -0.0021133 2 -0.39361 0.31017 0.86537 0 255 0
0.055593 0.0070537 -0.0024358 2 0.049268 -0.0091706 0.99875 0 255 0
0.054943 0.0053515 -0.0052703 2 -0.24236 0.22629 0.94343 0 255 0
0.058133 0.0037538 -0.0014613 2 -0.34526 -0.16464 0.92396 0 255 0
0.058863 0.0048535 -0.0019104 2 -0.18407 0.39724 0.89907 0 255 0
0.057003 0.006154 -0.0017188 2 -0.11154 0.00069892 -0.99377 0 255 0
0.058134 0.0062536 -0.0019274 2 0.080372 0.00056613 -0.99677 0 255 0
0.057713 0.0049541 -0.0015566 2 0.077988 0.00057001 -0.99696 0 255 0
0.057193 0.007854 -0.0016729 2 0.080451 0.00061432 -0.99676 0 255 0
0.055284 0.007952 -0.0045751 2 -0.11144 0.00053382 -0.99378 0 255 0
0.057324 0.0065516 -0.0041111 2 0.40774 -0.36934 -0.83507 0 255 0
0.056842 0.0044514 -0.0048375 2 -0.34452 0.18309 0.92076 0 255 0
0.056623 0.0054517 -0.0042703 2 -0.16076 0.73189 -0.66219 0 255 0
0.056543 0.0036535 -0.0018245 2 -0.047501 0.20137 0.97836 0 255 0
0.058193 0.0072538 -0.0014467 2 -0.11151 0.00059991 -0.99377 0 255 0
0.056393 0.0076525 -0.0045419 2 0.21343 0.23202 -0.949 0 255 0
0.054423 0.0060543 -0.0023067 2 -0.24727 -0.2323 0.94069 0 255 0
0.055564 0.0081544 -0.0020465 2 -0.4324 0.33016 0.83907 0 255 0
0.055443 0.0055533 -0.0026912 2 0.3383 -0.076402 -0.93792 0 255 0
0.055623 0.004352 -0.0051155 2 -0.06755 -0.00086497 0.99772 0 255 0
0.055033 0.0068523 -0.0050833 2 -0.054143 0.0034269 -0.99853 0 255 0
0.057753 0.005052 -0.004014 2 -0.4566 0.29918 0.83786 0 255 0
0.058413 0.007052 -0.0041065 2 0.031747 0.00064621 -0.9995 0 255 0
0.059143 0.0060536 -0.0012297 2 -0.34027 -0.15606 0.92729 0 255 0
0.056753 0.0047537 -0.0023921 2 0.24141 0.23378 -0.94185 0 255 0
0.059772 0.0049533 -0.0010874 2 -0.031551 -0.00060864 0.9995 0 255 0
0.060443 0.0081518 -0.0032392 2 0 0 0 0 255 0
0.060863 0.0071518 -0.0033755 2 -0.17947 -0.23595 0.95504 0 255 0
0.062752 0.0050536 -0.00040742 2 0.42938 0.32655 -0.84202 0 255 0
0.062393 0.0050513 -0.0033608 2 -0.27777 -0.22473 0.93399 0 255 0
0.062182 0.0038507 -0.003621 2 0.059225 -0.99548 0.074193 0 255 0
0.062393 0.0069535 -0.00047073 2 0.64876 0.75824 -0.064651 0 255 0
0.060303 0.004551 -0.0040505 2 0.12596 0.21856 -0.96766 0 255 0
0.059954 0.0075536 -0.0010452 2 0.021198 0.99081 -0.13361 0 255 0
0.064033 0.005753 -0.00020811 2 0.05264 -0.18607 -0.98112 0 255 0
0.062163 0.0074514 -0.0028681 2 0.20843 -0.18587 -0.96021 0 255 0
0.061243 0.0048513 -0.0032178 2 0.023494 -0.0017835 0.99972 0 255 0
0.063913 0.0045508 -0.0029743 2 -0.39413 0.30091 0.8684 0 255 0
0.061723 0.0062511 -0.0032917 2 0.2373 0.21209 -0.948 0 255 0
0.063314 0.0072516 -0.0025539 2 0.24466 0.23236 -0.94135 0 255 0
0.064043 0.0063516 -0.0025239 2 0.0039283 -0.0012987 0.99999 0 255 0
0.063962 0.0046532 -0.0004916 2 -0.05559 -0.0005623 0.99845 0 255 0
0.059583 0.0064512 -0.0039119 2 0.41302 0.33899 -0.84528 0 255 0
0.061043 0.0064535 -0.0007971 2 -0.36522 -0.22838 0.90247 0 255 0
