ply
format ascii 1.0
comment author Paulo Abelha (p.abelha at abdn ac uk)
element vertex 722
property float x
property float y
property float z
property int segm
property float nx
property float ny
property float nz
property uchar red
property uchar green
property uchar blue
end_header
0.07586 0.00079974 -0.0008845 2 0.031515 -0.73496 0.67738 0 255 0
0.077161 -0.00039943 0.0008656 2 0.041352 -0.45914 0.8874 0 255 0
0.077961 -0.00020026 -0.00088448 2 -1.4292e-06 -2.3702e-05 -1 0 255 0
0.07746 -0.0033998 -0.00088436 2 -1.4292e-06 -2.3702e-05 -1 0 255 0
0.07766 -0.0029997 0.00086558 2 0.00053804 0.002851 -1 0 255 0
0.081061 -0.0025002 -0.00088442 2 -1.4292e-06 -2.3702e-05 -1 0 255 0
0.081461 0.00090003 -0.00088448 2 0.079234 -0.11514 0.99018 0 255 0
0.07786 -0.0017995 -0.00088437 2 0.05324 -0.0035451 -0.99858 0 255 0
0.079861 0.00039986 0.00086551 2 1.4292e-06 2.3702e-05 1 0 255 0
0.080361 -0.0036997 -0.00088434 2 -1.4292e-06 -2.3702e-05 -1 0 255 0
0.078961 -0.0027004 0.00086553 2 0.046195 -0.0098347 -0.99888 0 255 0
0.079061 -0.0032998 -0.00088436 2 0.058926 0.45146 0.89035 0 255 0
0.079461 -0.0012999 0.00086558 2 0.013693 -0.14445 0.98941 0 255 0
0.078061 -0.0013994 0.00086559 2 1.4292e-06 2.3702e-05 1 0 255 0
0.080861 -0.00019975 -0.00088443 2 -1.4292e-06 -2.3702e-05 -1 0 255 0
0.081961 -0.0033997 0.00086563 2 0.064484 0.85946 -0.50712 0 255 0
0.081061 -0.0024998 0.00086563 2 -1.4292e-06 -2.3702e-05 -1 0 255 0
0.079461 -0.0017995 -0.00088437 2 1.4292e-06 2.3702e-05 1 0 255 0
0.080861 -0.0004003 0.00086552 2 0.086321 -0.48774 -0.86871 0 255 0
0.079661 -0.00040011 -0.00088446 2 -1.4292e-06 -2.3702e-05 -1 0 255 0
0.082161 -0.0018 0.00086561 2 1.4292e-06 2.3702e-05 1 0 255 0
0.077761 0.00060028 0.00086555 2 0.031091 0.65157 -0.75795 0 255 0
0.082061 -0.00039988 -0.00088444 2 -0.32731 0.053801 -0.94338 0 255 0
0.080161 0.00080026 -0.00088445 2 5.1679e-07 -0.0021925 1 0 255 0
0.07996 -0.0033997 0.00086561 2 0.072318 0.94581 0.31655 0 255 0
0.083861 -0.0014997 -0.00088439 2 -0.00054646 -0.0057775 0.99998 0 255 0
0.082761 0.00060012 -0.00088447 2 0.067734 0.94171 0.32955 0 255 0
0.083861 -0.0017002 0.00086552 2 -0.33037 -0.57385 0.74937 0 255 0
0.082361 -0.00060014 0.00086554 2 1.4292e-06 2.3702e-05 1 0 255 0
0.083561 -0.00030011 -0.00088446 2 -0.0084593 -0.03434 0.99937 0 255 0
0.08316 -0.0027002 0.00086557 2 -0.0008459 -0.013503 0.99991 0 255 0
0.085661 -0.0024996 0.00086561 2 1.4292e-06 2.3702e-05 1 0 255 0
0.086561 0.00090034 0.00086554 2 -1.4292e-06 -2.3702e-05 -1 0 255 0
0.08506 -0.0028996 -0.00088436 2 1.4292e-06 2.3702e-05 1 0 255 0
0.083361 9.9952e-05 0.00086552 2 -1.4292e-06 -2.3702e-05 -1 0 255 0
0.085461 0.00040008 0.00086553 2 -0.0039221 -0.14648 -0.9892 0 255 0
0.08536 -0.00099998 -0.00088444 2 -1.4292e-06 -2.3702e-05 -1 0 255 0
0.083961 -0.0036999 0.00086565 2 -1.4292e-06 -2.3702e-05 -1 0 255 0
0.087061 -0.0018995 0.00086561 2 -0.0011896 -0.0021364 1 0 255 0
0.086461 -0.00040008 0.00086553 2 0.038269 0.48027 -0.87629 0 255 0
0.084461 0.0010003 -0.00088446 2 0.045714 -0.78318 0.62012 0 255 0
0.086961 -0.0012996 -0.0008844 2 0.072036 -0.5378 -0.83999 0 255 0
0.082361 -0.0019999 -0.00088441 2 -0.00068579 -0.0017781 1 0 255 0
0.085261 -0.0010001 0.00086555 2 0.0017972 -0.003023 0.99999 0 255 0
0.085961 0.00019986 -0.00088448 2 0.027661 -0.5123 -0.85836 0 255 0
0.086861 -0.0028996 -0.00088436 2 -1.4292e-06 -2.3702e-05 -1 0 255 0
0.08346 -0.0032 -0.00088439 2 -0.11235 -0.049904 -0.99242 0 255 0
0.08656 -0.0034001 0.00086556 2 -1.4292e-06 -2.3702e-05 -1 0 255 0
0.086761 0.0010995 -0.00088454 2 -1.4292e-06 -2.3702e-05 -1 0 255 0
0.09056 0.00029995 0.00086552 2 0.048346 -0.64088 0.76612 0 255 0
0.08746 0.00020038 -0.00088443 2 0.050991 -0.35722 0.93263 0 255 0
0.089661 -0.0032999 -0.00088437 2 0.026412 -0.16286 0.98629 0 255 0
0.09216 0.00030037 -0.00088444 2 0.061723 0.99699 0.046891 0 255 0
0.089661 0.0011004 0.00086555 2 0.045975 -0.058104 0.99725 0 255 0
0.089261 -0.0005994 0.0008656 2 -0.0015115 0.0022434 -1 0 255 0
0.088661 -0.0012999 -0.00088442 2 -1.4292e-06 -2.3702e-05 -1 0 255 0
0.08906 -0.0020002 0.00086561 2 0.015435 -0.014229 -0.99978 0 255 0
0.090261 -0.0022998 0.00086558 2 0.69125 -0.01569 -0.72245 0 255 0
0.088661 -0.0028001 -0.00088441 2 0.044423 -0.98417 0.17161 0 255 0
0.08976 -0.00019959 -0.00088442 2 -0.0023521 -0.0035847 0.99999 0 255 0
0.092261 -0.00070005 0.00086554 2 0.026216 -0.97463 -0.22228 0 255 0
0.08786 -0.0028998 0.00086563 2 1.4292e-06 2.3702e-05 1 0 255 0
0.088661 0.00090047 -0.00088444 2 0.056291 0.95869 -0.27881 0 255 0
0.09196 -0.0030998 -0.00088438 2 0.014094 0.0043582 0.99989 0 255 0
0.09116 -0.0016004 -0.00088447 2 0.018527 0.12787 -0.99163 0 255 0
0.091461 -0.0021003 0.0008656 2 -1.4292e-06 -2.3702e-05 -1 0 255 0
0.087861 0.00030001 0.00086552 2 0.00019142 -0.0049401 0.99999 0 255 0
0.09066 -0.0026999 -0.00088438 2 -1.4292e-06 -2.3702e-05 -1 0 255 0
0.091061 0.0011 -0.00088448 2 -0.21631 -0.96522 -0.14681 0 255 0
0.087961 -0.0009996 0.00086559 2 -0.003498 -0.12895 0.99164 0 255 0
0.091761 0.0004995 0.00086547 2 0.050197 -0.08236 -0.99534 0 255 0
0.08976 -0.0017999 -0.00088442 2 0.06762 -0.46473 0.88287 0 255 0
0.09076 -0.00079983 0.00086556 2 7.4803e-05 0.0023895 -1 0 255 0
0.091261 -0.0033996 0.00086566 2 -1.4292e-06 -2.3702e-05 -1 0 255 0
0.091161 -0.00029966 -0.00088443 2 0.037855 -0.30808 -0.95061 0 255 0
0.094661 -0.0011998 0.00086558 2 -1.4292e-06 -2.3702e-05 -1 0 255 0
0.09636 0.00010004 0.00086553 2 0.055338 -0.46975 -0.88106 0 255 0
0.094061 0.00030008 -0.00088447 2 -0.00098674 -0.14807 0.98897 0 255 0
0.092861 -0.0027995 0.00086563 2 -1.4292e-06 -2.3702e-05 -1 0 255 0
0.095561 0.00089939 0.00086545 2 0.046318 0.84814 -0.52773 0 255 0
0.095761 -0.00059986 -0.00088444 2 1.4292e-06 2.3702e-05 1 0 255 0
0.094861 -0.0036003 0.00086557 2 0.046895 -0.5303 -0.8465 0 255 0
0.093661 0.00029965 0.00086549 2 0.72719 0.59106 -0.34905 0 255 0
0.09416 -0.0033 -0.00088438 2 -1.4292e-06 -2.3702e-05 -1 0 255 0
0.095361 -0.0017997 -0.00088439 2 0.061942 0.42295 0.90403 0 255 0
0.093161 0.0011005 -0.00088444 2 0.049019 0.026389 0.99845 0 255 0
0.097261 -0.00099983 -0.00088443 2 -0.0010242 0.0049049 -0.99999 0 255 0
0.09536 0.00070027 -0.00088445 2 0.43159 -0.011289 0.902 0 255 0
0.096761 1.7108e-07 -0.00088445 2 0.055951 -0.013982 -0.99834 0 255 0
0.096661 -0.0032002 -0.00088441 2 -0.4104 -0.50704 0.75794 0 255 0
0.094061 -0.0013997 -0.00088441 2 0.2468 0.044539 0.96804 0 255 0
0.092661 -0.00089999 -0.00088444 2 -0.0046654 -0.059356 -0.99822 0 255 0
0.097261 -0.0031003 0.00086555 2 0.093392 0.89595 0.43422 0 255 0
0.094161 -0.0026998 0.00086559 2 0.03509 0.1851 -0.9821 0 255 0
0.096161 -0.0011 0.00086555 2 0.00024793 -0.0039229 0.99999 0 255 0
0.092861 -0.0023994 -0.00088436 2 -1.4292e-06 -2.3702e-05 -1 0 255 0
0.093361 -0.0014005 0.00086557 2 -0.00058782 -0.0032753 0.99999 0 255 0
0.095861 -0.0029002 0.00086559 2 1.4292e-06 2.3702e-05 1 0 255 0
0.09356 -0.0037001 0.0008656 2 0.0023587 -0.03395 0.99942 0 255 0
0.09666 -0.0020996 -0.00088438 2 1.4292e-06 2.3702e-05 1 0 255 0
0.098661 0.0003003 -0.00088444 2 -1.4292e-06 -2.3702e-05 -1 0 255 0
0.098661 -0.0033999 0.0008656 2 0.0014515 -0.0032246 0.99999 0 255 0
0.10056 -0.00079977 -0.00088443 2 0.049996 -0.026167 0.99841 0 255 0
0.099061 -0.0018997 0.00086563 2 -0.074165 -0.99631 -0.043233 0 255 0
0.10216 -0.0016996 0.00086564 2 1.4292e-06 2.3702e-05 1 0 255 0
0.098361 -0.00070013 0.00086554 2 0.032801 -0.57759 -0.81566 0 255 0
0.10006 -0.0028003 -0.00088443 2 -0.00050361 -0.14462 -0.98949 0 255 0
0.10116 -0.0001001 0.00086552 2 -1.4292e-06 -2.3702e-05 -1 0 255 0
0.097561 0.00049971 0.00086549 2 0.00060004 -0.0045989 0.99999 0 255 0
0.10076 0.00059962 -0.00088452 2 0.43226 0.1649 -0.88654 0 255 0
0.10186 -0.0016002 -0.00088445 2 0.11679 0.87567 -0.46858 0 255 0
0.098261 -0.0020996 -0.00088438 2 0.036747 -0.27368 0.96112 0 255 0
0.10026 -0.0011001 0.00086554 2 0.047927 -0.81142 -0.58249 0 255 0
0.098761 -0.0031997 -0.00088436 2 0.057072 0.50812 0.85939 0 255 0
0.099361 -0.00090064 -0.00088451 2 1.4292e-06 2.3702e-05 1 0 255 0
0.10156 -0.0028002 0.00086556 2 -1.4292e-06 -2.3702e-05 -1 0 255 0
0.10106 -0.0035996 -0.00088435 2 -0.87076 0.35675 -0.33841 0 255 0
0.10006 -0.0026998 0.00086556 2 0.017047 -0.13556 -0.99063 0 255 0
0.099861 0.00050023 0.00086554 2 0.042703 0.37762 -0.92497 0 255 0
0.09736 -0.0017999 0.00086561 2 0.048063 0.11111 -0.99264 0 255 0
0.10576 -0.0027003 -0.00088444 2 0.048575 0.72529 0.68671 0 255 0
0.10686 0.0003998 0.0008655 2 -0.88513 -0.36505 0.28858 0 255 0
0.10436 -0.0019998 0.00086562 2 -1.4292e-06 -2.3702e-05 -1 0 255 0
0.10436 -0.0013001 -0.00088445 2 -0.0001944 -0.0079654 0.99997 0 255 0
0.10566 0.00059955 -0.00088453 2 0.055628 0.99834 0.015038 0 255 0
0.10676 -0.0016003 -0.00088446 2 0.047424 0.80062 -0.59728 0 255 0
0.10646 -0.0013 0.00086555 2 1.4292e-06 2.3702e-05 1 0 255 0
0.10276 -0.0006999 0.00086555 2 -1.4292e-06 -2.3702e-05 -1 0 255 0
0.10396 -0.0031 -0.00088439 2 0.038144 -0.70677 -0.70642 0 255 0
0.10686 -0.00030068 -0.00088453 2 0.049197 -0.017084 0.99864 0 255 0
0.10576 0.0009999 0.00086549 2 1.4292e-06 2.3702e-05 1 0 255 0
0.10396 -9.9872e-05 0.00086554 2 1.4292e-06 2.3702e-05 1 0 255 0
0.10266 -0.0038001 0.0008256 2 -0.006479 0.0076715 -0.99995 0 255 0
0.10396 -0.0035 0.00085566 2 1.4616e-06 -0.14361 -0.98964 0 255 0
0.10236 -0.00039986 -0.00088445 2 -1.4292e-06 -2.3702e-05 -1 0 255 0
0.10556 -0.0014002 -0.00088445 2 -1.4292e-06 -2.3702e-05 -1 0 255 0
0.10266 0.00070058 0.00086556 2 -1.4292e-06 -2.3702e-05 -1 0 255 0
0.10566 -0.00039978 0.00086556 2 -1.4292e-06 -2.3702e-05 -1 0 255 0
0.10686 -0.0033999 -0.00088438 2 0.058365 0.65245 0.75558 0 255 0
0.10356 -0.00029981 -0.00088445 2 -0.0016573 -0.0041638 -0.99999 0 255 0
0.10426 0.00060013 -0.00088447 2 1.4292e-06 2.3702e-05 1 0 255 0
0.10556 -0.0022994 0.0008656 2 0.055925 0.94785 -0.31375 0 255 0
0.10296 -0.0023006 -0.00088447 2 0.00069764 -0.0040207 0.99999 0 255 0
0.10316 -0.0021001 0.0008656 2 0.00072856 -0.0036138 0.99999 0 255 0
0.10706 -0.0025999 0.00086555 2 0.063667 0.99158 -0.11277 0 255 0
0.10766 0.0010999 0.00086549 2 0.033128 -0.99648 0.076941 0 255 0
0.11166 -3.4722e-08 -0.00088448 2 -0.15432 0.82596 -0.54219 0 255 0
0.10806 -0.0032003 -0.00088443 2 0.083911 -0.099261 0.99151 0 255 0
0.11156 -0.0030003 0.00085559 2 1.4292e-06 2.3702e-05 1 0 255 0
0.11036 -0.0015 -0.00088444 2 -1.4292e-06 -2.3702e-05 -1 0 255 0
0.10896 0.00099974 -0.00088452 2 -1.4292e-06 -2.3702e-05 -1 0 255 0
0.10856 -0.0018999 -0.00088442 2 0.022107 -0.14212 -0.98961 0 255 0
0.11136 -1.7314e-07 0.00086551 2 0.042406 -0.65737 -0.75238 0 255 0
0.10786 -0.0014001 0.0008656 2 0.048 -0.2565 0.96535 0 255 0
0.10816 -0.00039965 -0.00088443 2 -0.33978 -0.025152 0.94017 0 255 0
0.10956 -0.0034999 -0.00083438 2 0.059473 0.22848 -0.97173 0 255 0
0.11046 0.00049971 -0.00088452 2 -0.14127 -0.39404 0.90817 0 255 0
0.11016 -0.0015004 0.00086548 2 0.058794 0.91344 0.40271 0 255 0
0.11126 -0.0018003 0.00086554 2 0.048084 -0.10216 -0.99361 0 255 0
0.11026 0.00099983 0.00086548 2 -1.4292e-06 -2.3702e-05 -1 0 255 0
0.10926 -9.9941e-05 0.00086553 2 -1.4292e-06 -2.3702e-05 -1 0 255 0
0.11206 -0.0034003 -0.00082442 2 -0.019526 0.1404 -0.9899 0 255 0
0.11156 -0.0021005 -0.00089447 2 -0.0024897 0.0026264 -0.99999 0 255 0
0.10906 -0.0035 0.00082561 2 0.076554 0.59719 0.79844 0 255 0
0.10956 -0.00049972 -0.00088444 2 -1.4292e-06 -2.3702e-05 -1 0 255 0
0.10866 -0.0023003 0.00086559 2 0.0011905 0.00074768 -1 0 255 0
0.11026 -0.0028 0.00086557 2 0.039966 0.10805 0.99334 0 255 0
0.10786 -0.00020024 0.00086551 2 1.4292e-06 2.3702e-05 1 0 255 0
0.11396 0.00050022 -0.00088446 2 0.068572 0.95941 0.27353 0 255 0
0.11436 0.00099976 0.00086548 2 0.046796 0.02388 0.99862 0 255 0
0.11476 -0.0031998 -0.00081438 2 -0.00022 -0.14603 -0.98928 0 255 0
0.11596 -0.0033001 -0.00076441 2 -0.005905 -0.14078 -0.99003 0 255 0
0.11636 -0.0015002 0.00086554 2 -1.4292e-06 -2.3702e-05 -1 0 255 0
0.11596 4.9474e-08 0.00086552 2 -0.0023376 0.0027253 -0.99999 0 255 0
0.11306 -0.0024004 -0.00089446 2 -7.6954e-05 0.0037025 -0.99999 0 255 0
0.11366 -0.00030008 0.00086552 2 0.00076847 -0.0041972 0.99999 0 255 0
0.11556 -0.00029995 -0.00088446 2 1.4292e-06 2.3702e-05 1 0 255 0
0.11486 -0.00070034 0.00086551 2 -1.4292e-06 -2.3702e-05 -1 0 255 0
0.11266 0.00050009 0.00086551 2 0.050078 -0.59823 -0.79975 0 255 0
0.11256 -0.0013001 0.00086555 2 -0.016164 0.25839 0.9659 0 255 0
0.11576 -0.0029002 0.00079552 2 -0.02175 0.69478 0.71889 0 255 0
0.11426 -0.0019004 -0.00089447 2 0.035306 -0.99223 0.11936 0 255 0
0.11276 -0.0005003 -0.00088449 2 0.0012836 -0.0016356 1 0 255 0
0.11656 -0.0022003 -0.00089446 2 -0.90297 -0.34672 -0.25383 0 255 0
0.11706 -0.00050037 -0.0008845 2 0.0036976 -0.059074 0.99825 0 255 0
0.11666 0.00099947 0.00086544 2 0.068254 -0.68505 0.72529 0 255 0
0.11416 -0.00070043 -0.0008845 2 -0.00031591 0.0050105 -0.99999 0 255 0
0.11416 -0.0019998 0.00085562 2 -0.11444 -0.036902 0.99274 0 255 0
0.11426 -0.0032 0.00078561 2 0.024803 -0.14391 0.98929 0 255 0
0.11286 -0.003 0.00082561 2 0.046915 0.14497 -0.98832 0 255 0
0.11556 -0.0015002 -0.00089446 2 1.4292e-06 2.3702e-05 1 0 255 0
0.11916 -0.0037001 0.0006256 2 0.051868 0.24701 0.96762 0 255 0
0.12216 -0.0012004 -0.00089449 2 -0.018691 0.999 -0.040659 0 255 0
0.12076 -0.0015004 0.00085547 2 0.050062 0.28886 0.95606 0 255 0
0.12096 -0.0021998 -0.00084441 2 -0.12299 0.26355 -0.95678 0 255 0
0.11776 -0.0021001 -0.00089444 2 0.060424 0.98992 0.12806 0 255 0
0.11816 0.00019956 -0.00089452 2 -0.020839 -0.22465 -0.97421 0 255 0
0.11856 -0.0037005 -0.00066444 2 1.4292e-06 2.3702e-05 1 0 255 0
0.11746 -0.00020037 0.00086549 2 -0.30944 -0.19324 -0.93107 0 255 0
0.11946 0.0002996 0.00086548 2 0.045042 -0.4188 -0.90696 0 255 0
0.11966 -0.0026999 -0.0007844 2 0.0071851 -0.1411 -0.98996 0 255 0
0.12186 -0.0038003 0.00055558 2 0.0567 -0.223 0.97317 0 255 0
0.12066 -0.00029964 0.00086556 2 0.00030302 -0.0023127 1 0 255 0
0.11736 -0.0031998 0.00073558 2 -1.4292e-06 -2.3702e-05 -1 0 255 0
0.12186 -0.00060064 0.00086548 2 0.046821 0.17509 0.98344 0 255 0
0.12066 -0.0034003 0.00063557 2 0.0010119 0.0044317 -0.99999 0 255 0
0.12086 -0.00020041 -0.00089451 2 4.4502e-07 -0.0044537 0.99999 0 255 0
0.11806 -0.0014997 0.00086555 2 0.0014336 -0.12865 0.99169 0 255 0
0.11836 0.00079963 0.00086546 2 -1.4292e-06 -2.3702e-05 -1 0 255 0
0.11936 -0.0025005 0.0008055 2 0.058858 -0.96208 0.26636 0 255 0
0.11946 -0.00090012 0.00085553 2 -0.49403 -0.38389 0.7801 0 255 0
0.11856 -0.0011998 -0.00089443 2 0.041662 -0.49622 -0.8672 0 255 0
0.12096 0.00089991 0.00086549 2 0.05452 0.030771 -0.99804 0 255 0
0.12116 -0.0034001 -0.00066441 2 -1.4292e-06 -2.3702e-05 -1 0 255 0
0.11976 -0.0011998 -0.00089443 2 0.045871 -0.8252 -0.56299 0 255 0
0.12226 -0.0020002 0.00080554 2 -0.20463 -0.97872 -0.015735 0 255 0
0.11946 0.00059975 -0.00089452 2 0.053589 -0.49878 0.86507 0 255 0
0.12306 0.00030187 -0.00089431 2 0.060194 0.87113 -0.48735 0 255 0
0.12406 -0.0019014 0.00078543 2 -0.44081 0.28149 -0.85231 0 255 0
0.12646 0.00089866 -0.00089463 2 0.030324 -0.98288 0.18177 0 255 0
0.12416 -0.0030999 -0.0006444 2 -0.0037178 -0.048711 -0.99881 0 255 0
0.12356 -0.0017999 -0.00084442 2 4.513e-06 0.85353 0.52104 0 255 0
0.12326 -0.00079925 0.00085561 2 0.0029822 -0.014388 0.99989 0 255 0
0.12666 -0.0024029 0.0006553 2 0.049965 -0.57824 -0.81433 0 255 0
0.12456 -0.0029975 0.00062583 2 1.4292e-06 2.3702e-05 1 0 255 0
0.12306 -0.0028997 0.00067561 2 0.070325 0.058676 -0.9958 0 255 0
0.12486 -0.0021022 -0.00078463 2 0.056332 -0.12969 -0.98995 0 255 0
0.12416 0.00090033 -0.00088447 2 0.033821 -0.77248 0.63414 0 255 0
0.12606 -0.0024015 -0.00070457 2 -0.001091 -0.015791 0.99987 0 255 0
0.12406 -0.00079791 -0.00089426 2 0.014093 -0.10863 0.99398 0 255 0
0.12446 0.0005011 0.0008656 2 1.4292e-06 2.3702e-05 1 0 255 0
0.12616 -0.00040138 0.0008554 2 -0.019408 -0.99977 -0.0094404 0 255 0
0.12646 -0.00030026 -0.0008945 2 0.0062232 -0.030179 0.99952 0 255 0
0.12236 -0.0032002 -0.00067443 2 1.4292e-06 2.3702e-05 1 0 255 0
0.12546 -0.0010009 -0.00089454 2 1.4292e-06 2.3702e-05 1 0 255 0
0.12306 0.00069834 0.00086535 2 0.051132 -0.1133 0.99224 0 255 0
0.12526 0.0010999 -0.00089451 2 0.022236 -0.52192 -0.85269 0 255 0
0.12596 0.00079834 0.00086534 2 1.4292e-06 2.3702e-05 1 0 255 0
0.12556 -0.0015995 0.00080561 2 0.0014843 -0.0018838 1 0 255 0
0.12746 -0.0010012 -0.00087457 2 -1.4292e-06 -2.3702e-05 -1 0 255 0
0.12936 -0.00060029 -0.00088449 2 0.062441 0.40877 0.9105 0 255 0
0.13096 -0.0019994 -0.00064438 2 -1.4292e-06 -2.3702e-05 -1 0 255 0
0.12956 -0.0017998 -0.00070442 2 0.058314 -0.62203 -0.78083 0 255 0
0.12756 -0.0030026 -0.00058466 2 0.014708 0.22766 0.97362 0 255 0
0.12836 -0.0015028 0.00074529 2 0.056044 -0.68604 0.72541 0 255 0
0.12976 0.00049985 -0.00089451 2 0.034647 0.98466 0.171 0 255 0
0.13126 9.8485e-05 -0.00089462 2 -1.4292e-06 -2.3702e-05 -1 0 255 0
0.12836 -0.0018006 -0.0007345 2 0.15669 -0.93985 -0.30353 0 255 0
0.13056 -0.00010039 0.00085548 2 1.4292e-06 2.3702e-05 1 0 255 0
0.13066 -0.0035977 0.00037581 2 0.051461 0.66638 -0.74384 0 255 0
0.13216 0.00080002 -0.00089449 2 -0.94142 -0.20919 0.26452 0 255 0
0.12846 -0.00010032 0.00085549 2 -0.00010685 -0.11042 0.99389 0 255 0
0.12756 0.00089724 0.00086524 2 0.054161 0.098643 0.99365 0 255 0
0.12816 1.0283e-06 -0.00089439 2 0.047279 0.79001 -0.61126 0 255 0
0.13186 -0.0028003 0.00046555 2 0.010533 -0.076917 0.99699 0 255 0
0.12906 -0.0030991 0.00050567 2 0 0 0 0 255 0
0.12956 -0.00079976 0.00081555 2 0.040252 -0.38168 0.92342 0 255 0
0.13106 -0.0011976 0.00072577 2 -1.4292e-06 -2.3702e-05 -1 0 255 0
0.13186 1.1143e-06 0.00085562 2 -1.4292e-06 -2.3702e-05 -1 0 255 0
0.12736 -0.00080013 0.00085552 2 -0.020395 0.70639 -0.70754 0 255 0
0.12986 -0.0030009 -0.0005245 2 -0.046903 -0.010071 -0.99885 0 255 0
0.13036 -0.0023016 0.00058542 2 -1.4292e-06 -2.3702e-05 -1 0 255 0
0.13726 -0.0032026 0.00019535 2 0.055276 -0.40814 0.91124 0 255 0
0.13446 -6.8065e-07 0.00077545 2 0.063007 0.77779 0.62535 0 255 0
0.13686 0.00059961 0.00072547 2 0.039521 -0.18624 0.98171 0 255 0
0.13496 -0.0017021 0.00052535 2 0.045531 -0.08078 -0.99569 0 255 0
0.13596 -0.0010026 0.00055529 2 0.0013508 -0.0028887 0.99999 0 255 0
0.13336 -0.001801 -0.00059454 2 -0.83352 -0.48378 0.26682 0 255 0
0.13246 -0.0026006 -0.00051447 2 0.0014372 -0.031054 -0.99952 0 255 0
0.13396 0.00039689 -0.00089478 2 0.074331 0.77676 -0.6254 0 255 0
0.13446 -0.0031 -0.00038441 2 0.076183 -0.95595 -0.28343 0 255 0
0.13566 0.00029847 0.00076536 2 -1.4292e-06 -2.3702e-05 -1 0 255 0
0.13586 -0.0012996 -0.00056442 2 -0.01661 0.13299 -0.99098 0 255 0
0.13456 -0.00059787 -0.00071427 2 0.040059 0.44108 0.89657 0 255 0
0.13576 0.00019899 -0.00078458 2 -1.4292e-06 -2.3702e-05 -1 0 255 0
0.13356 -0.003401 0.0003355 2 1.4292e-06 2.3702e-05 1 0 255 0
0.13236 -0.00080279 -0.00077472 2 1.4292e-06 2.3702e-05 1 0 255 0
0.13576 -0.0032027 -0.00030466 2 -0.0022052 -0.069332 -0.99759 0 255 0
0.13376 -0.0014023 0.00061533 2 -0.8926 0.44609 0.065307 0 255 0
0.13286 -0.00070157 0.00074538 2 0.051596 0.072839 -0.99601 0 255 0
0.13726 -0.00079861 0.00051566 2 0.0014495 -0.0030956 0.99999 0 255 0
0.13266 -0.0019995 0.00056561 2 0.036722 -0.049856 -0.99808 0 255 0
0.13646 -0.0021995 0.00036561 2 -0.00058064 0.0027745 -1 0 255 0
0.13706 -0.0013009 -0.00049454 2 -1.4292e-06 -2.3702e-05 -1 0 255 0
0.13966 -0.0011014 -0.00034459 2 0.044841 0.45416 0.88979 0 255 0
0.13756 -1.0048e-06 -0.00063458 2 0.052205 -0.45422 0.88936 0 255 0
0.13876 -0.00019947 -0.00052443 2 1.4292e-06 2.3702e-05 1 0 255 0
0.14216 0.0008003 0.00026552 2 -1.4292e-06 -2.3702e-05 -1 0 255 0
0.14096 -0.0013027 -0.00020471 2 0.0010112 -0.0035834 0.99999 0 255 0
0.13806 -0.0018979 -0.00035425 2 1.4292e-06 2.3702e-05 1 0 255 0
0.13996 0.0005989 0.0004654 2 1.4292e-06 2.3702e-05 1 0 255 0
0.14156 -0.00010154 -0.00027463 2 -0.0037334 0.057842 0.99832 0 255 0
0.13816 9.8055e-05 0.00057533 2 0.0095789 -0.095482 0.99538 0 255 0
0.13886 -0.0027977 0.00013579 2 1.4292e-06 2.3702e-05 1 0 255 0
0.13876 -0.0010997 0.00038556 2 -1.4292e-06 -2.3702e-05 -1 0 255 0
0.031061 0.0037999 -0.0007445 2 0.055824 0.80479 -0.59094 0 255 0
0.03056 0.0037007 0.00080553 2 5.549e-06 -0.13203 0.99124 0 255 0
0.029161 0.0037005 -0.00024447 2 0.058997 -0.2232 -0.97298 0 255 0
0.028061 0.0028008 -0.00087442 2 -0.00091605 -0.0019627 1 0 255 0
0.03066 0.0016004 -0.00087449 2 -0.0060023 0.36138 -0.9324 0 255 0
0.028061 0.0037 0.00087547 2 -1.4292e-06 -2.3702e-05 -1 0 255 0
0.02946 0.0028006 0.00087555 2 -1.4292e-06 -2.3702e-05 -1 0 255 0
0.028361 0.0015998 -0.00087452 2 1.4292e-06 2.3702e-05 1 0 255 0
0.031861 0.0016003 -0.00087446 2 0.014838 -0.57818 -0.81578 0 255 0
0.030061 0.0029002 -0.00087448 2 -0.79014 -0.60482 -0.099356 0 255 0
0.027661 0.0016001 0.0011555 2 0.18481 0.83174 0.52352 0 255 0
0.031961 0.0037005 0.00087552 2 1.4292e-06 2.3702e-05 1 0 255 0
0.027361 0.0038 -5.4522e-05 2 0.064293 0.43796 -0.89669 0 255 0
0.03056 0.0021002 0.00087553 2 -0.4511 -0.61592 0.64586 0 255 0
0.028761 0.0013006 0.00087558 2 0.040158 -0.98387 0.17435 0 255 0
0.03496 0.0017003 -0.00087442 2 0.036161 -0.95234 0.30289 0 255 0
0.03396 0.0026006 -0.00087449 2 0.089696 -0.80223 -0.59024 0 255 0
0.037161 0.0027004 0.00087553 2 0.073377 0.96505 0.25156 0 255 0
0.035761 0.0023005 0.00087555 2 0.044157 0.27636 0.96003 0 255 0
0.032561 0.0035 -0.00087457 2 -0.77419 -0.6231 -0.11124 0 255 0
0.03346 0.0039006 0.00087552 2 0.054528 -0.61069 0.79 0 255 0
0.036761 0.0028001 -0.00087449 2 1.4292e-06 2.3702e-05 1 0 255 0
0.03426 0.0038001 -0.0008745 2 0.49376 -0.86657 0.072484 0 255 0
0.035361 0.0044007 0.00078552 2 1.4292e-06 2.3702e-05 1 0 255 0
0.036061 0.0034008 0.00087555 2 -9.6374e-05 0.0028268 -1 0 255 0
0.032461 0.0015007 0.00087558 2 0.079914 0.92243 -0.37779 0 255 0
0.033761 0.0019 0.00087551 2 -0.00076661 0.0044008 -0.99999 0 255 0
0.03276 0.0026001 0.00087551 2 1.4292e-06 2.3702e-05 1 0 255 0
0.036261 0.0046007 -0.00030448 2 0.029912 -0.98812 0.15075 0 255 0
0.033261 0.0012007 -0.00087441 2 0.074858 0.93267 0.35288 0 255 0
0.036261 0.0016006 -0.00087445 2 0.0018727 -0.010895 -0.99994 0 255 0
0.036861 0.0047003 0.00070547 2 0.044525 -0.86512 0.49958 0 255 0
0.035361 0.0034007 -0.00087445 2 -0.029949 -0.99872 -0.04081 0 255 0
0.034561 0.0033002 0.0008755 2 0.023604 -0.99851 -0.049129 0 255 0
0.041961 0.0041 0.00087546 2 -0.75491 0.30726 -0.57939 0 255 0
0.041361 0.0025003 0.00087552 2 -0.001923 -0.14257 0.98978 0 255 0
0.04176 0.0018 -0.00087453 2 -1.4292e-06 -2.3702e-05 -1 0 255 0
0.040861 0.0037007 0.00087553 2 1.4292e-06 2.3702e-05 1 0 255 0
0.039661 0.0033999 -0.00087453 2 0.047211 -0.83818 -0.54334 0 255 0
0.04166 0.0042002 -0.00087456 2 0.0021182 0.00049345 1 0 255 0
0.040561 0.0059006 -0.0007645 2 1.4292e-06 2.3702e-05 1 0 255 0
0.038261 0.0033004 -0.00087445 2 6.6404e-06 0.99962 0.027372 0 255 0
0.04126 0.0028 -0.00087452 2 -0.00091004 0.0029306 -1 0 255 0
0.038661 0.0052006 0.00016549 2 0.052373 -0.24209 0.96884 0 255 0
0.038761 0.0017998 -0.00087453 2 0.021464 -0.14469 0.98925 0 255 0
0.039861 0.0043999 0.00087545 2 0.062449 -0.82693 0.55882 0 255 0
0.040461 0.0055005 0.00087548 2 0.049294 0.92137 -0.38555 0 255 0
0.038761 0.0037001 0.00087548 2 0.040345 -0.46449 -0.88466 0 255 0
0.042261 0.0054001 -0.00087459 2 0.002211 -0.0010437 1 0 255 0
0.037461 0.0042006 -0.00087444 2 1.4292e-06 2.3702e-05 1 0 255 0
0.03986 0.0029005 0.00087553 2 0.051194 -0.80493 -0.59115 0 255 0
0.039361 0.0051 -0.00087459 2 0.058063 0.40295 -0.91338 0 255 0
0.03876 0.0024002 0.00087552 2 0.048544 0.27379 -0.96057 0 255 0
0.03936 0.0013005 0.00087557 2 0.091717 0.79085 -0.60511 0 255 0
0.044161 0.0048006 -0.00087449 2 -0.0032868 0.00093456 -0.99999 0 255 0
0.04726 0.0015004 -0.00087445 2 0.00098761 0.0037526 -0.99999 0 255 0
0.045661 0.0022002 -0.0008745 2 -0.0012472 -0.10786 -0.99417 0 255 0
0.044761 0.0031002 -0.0008745 2 1.4292e-06 2.3702e-05 1 0 255 0
0.04566 0.0049001 0.00087545 2 0.069788 0.99571 0.060706 0 255 0
0.046361 0.0043008 -0.00087449 2 0.1907 -0.85219 -0.48723 0 255 0
0.043761 0.0018004 0.00087555 2 -0.0001837 -0.0028419 1 0 255 0
0.047161 0.0032 0.00087548 2 1.4292e-06 2.3702e-05 1 0 255 0
0.043961 0.0041008 0.00087554 2 0 0 0 0 255 0
0.04276 0.0051006 0.00087549 2 0.04685 0.22595 -0.97301 0 255 0
0.047061 0.0046005 0.0008755 2 0.046738 0.63725 -0.76923 0 255 0
0.042661 0.0033006 -0.00087444 2 -0.086125 -0.84811 -0.52279 0 255 0
0.044661 0.0025002 0.00087552 2 0.0025056 -0.043697 0.99904 0 255 0
0.043461 0.0024004 -0.00087445 2 0.047657 0.70416 0.70844 0 255 0
0.047061 0.0028003 -0.0008745 2 1.4292e-06 2.3702e-05 1 0 255 0
0.046161 0.0026 0.00087549 2 0.00050924 -0.0058912 -0.99998 0 255 0
0.042861 0.0029005 0.00087553 2 1.4292e-06 2.3702e-05 1 0 255 0
0.044061 0.0052003 0.00087546 2 -1.4292e-06 -2.3702e-05 -1 0 255 0
0.042461 0.0017007 0.00087558 2 -1.4292e-06 -2.3702e-05 -1 0 255 0
0.045561 0.0058003 -0.00087457 2 0.037687 0.70081 -0.71236 0 255 0
0.045561 0.0035997 0.00087544 2 -1.4292e-06 -2.3702e-05 -1 0 255 0
0.050861 0.0058006 0.00087546 2 0.043247 0.76904 -0.63773 0 255 0
0.050261 0.0032002 -0.0008745 2 0.00013596 0.0042112 -0.99999 0 255 0
0.052061 0.0045007 0.0008755 2 -0.03938 -0.29873 -0.95353 0 255 0
0.04936 0.0051002 0.00087545 2 1.4292e-06 2.3702e-05 1 0 255 0
0.04966 0.0020003 -0.00087447 2 1.4292e-06 2.3702e-05 1 0 255 0
0.047861 0.0013999 0.0008755 2 -0.22914 0.85543 0.46448 0 255 0
0.05216 0.0012003 0.00087554 2 -0.033563 -0.97968 -0.19771 0 255 0
0.048261 0.0024006 -0.00087449 2 0.0004026 -0.0015269 1 0 255 0
0.050561 0.0044001 0.00087545 2 0.083933 -0.99235 0.090582 0 255 0
0.05076 0.0016005 -0.00088441 2 0.065264 0.5375 -0.84073 0 255 0
0.049961 0.0049003 -0.00087456 2 0.076708 -0.74936 -0.65769 0 255 0
0.04916 0.0037004 -0.0008745 2 0.059539 -0.40402 -0.91281 0 255 0
0.051761 0.0047001 -0.00087455 2 1.4292e-06 2.3702e-05 1 0 255 0
0.052061 0.0019003 -0.00087447 2 0.0024985 -0.0038863 0.99999 0 255 0
0.051261 0.0028009 0.00087556 2 -1.4292e-06 -2.3702e-05 -1 0 255 0
0.048561 0.0048008 -0.00087448 2 -1.4292e-06 -2.3702e-05 -1 0 255 0
0.051561 0.0030998 -0.00087458 2 0.048853 0.19671 0.97925 0 255 0
0.049561 0.0020002 0.00087552 2 0.015495 0.10865 0.99396 0 255 0
0.047461 0.0039 -0.00087457 2 0.045592 -0.67228 -0.7389 0 255 0
0.048361 0.0061001 -0.00087458 2 -1.4292e-06 -2.3702e-05 -1 0 255 0
0.048461 0.0038004 0.00087549 2 0.035458 -0.38312 0.92301 0 255 0
0.047361 0.0058001 0.00087542 2 0.042575 0.46696 -0.88325 0 255 0
0.048161 0.0026008 0.00087557 2 -1.4292e-06 -2.3702e-05 -1 0 255 0
0.05006 0.0031005 0.00087553 2 0.05366 0.44786 0.89249 0 255 0
0.051161 0.0057999 -0.00087458 2 -1.4292e-06 -2.3702e-05 -1 0 255 0
0.05436 0.0032001 -0.00087447 2 -0.0025309 0.0034796 -0.99999 0 255 0
0.056361 0.0059997 -0.00087459 2 1.4292e-06 2.3702e-05 1 0 255 0
0.056561 0.0039002 -0.00087452 2 -1.4292e-06 -2.3702e-05 -1 0 255 0
0.052561 0.0037004 -0.00087447 2 -0.15311 0.045355 -0.98717 0 255 0
0.053161 0.0025006 -0.00087441 2 1.4292e-06 2.3702e-05 1 0 255 0
0.056261 0.0051001 0.00087544 2 0.05176 -0.16946 0.98417 0 255 0
0.052661 0.0060005 -0.0008745 2 -0.0013397 -0.0017648 1 0 255 0
0.054261 0.0020007 -0.00088442 2 0.050705 -0.64819 0.75978 0 255 0
0.056061 0.0025001 0.0008755 2 -1.4292e-06 -2.3702e-05 -1 0 255 0
0.056661 0.0024006 -0.0008844 2 0.050773 0.98252 0.17907 0 255 0
0.05296 0.0026005 0.00087553 2 1.4292e-06 2.3702e-05 1 0 255 0
0.054761 0.0029001 0.00087549 2 -1.4292e-06 -2.3702e-05 -1 0 255 0
0.05466 0.0049006 0.00087549 2 0.047579 0.94237 0.33118 0 255 0
0.053661 0.0051003 -0.00087454 2 0.056302 -0.34103 -0.93837 0 255 0
0.054961 0.0053002 -0.0008746 2 0.043553 -0.93025 -0.36434 0 255 0
0.057161 0.0039006 0.00087551 2 1.4292e-06 2.3702e-05 1 0 255 0
0.055561 0.0037997 0.00087543 2 -1.4292e-06 -2.3702e-05 -1 0 255 0
0.053061 0.0052008 0.0008755 2 0.047871 0.9505 -0.30704 0 255 0
0.053661 0.0039001 0.00087546 2 -0.00034918 -0.92855 -0.3712 0 255 0
0.055261 0.0040005 -0.00087444 2 -1.4292e-06 -2.3702e-05 -1 0 255 0
0.058761 0.0055003 0.00087545 2 1.4292e-06 2.3702e-05 1 0 255 0
0.057561 0.0025999 0.00087548 2 0.097296 -0.99525 0.003761 0 255 0
0.061161 0.0023997 -0.00088451 2 -1.4292e-06 -2.3702e-05 -1 0 255 0
0.060361 0.0051997 -0.00087456 2 1.4292e-06 2.3702e-05 1 0 255 0
0.059861 0.0021999 0.00087548 2 0.062115 0.84434 -0.5322 0 255 0
0.05976 0.0042 -0.00087459 2 0.043916 -0.47265 -0.88015 0 255 0
0.059361 0.0025998 -0.00088452 2 -1.4292e-06 -2.3702e-05 -1 0 255 0
0.061361 0.0036008 -0.00087442 2 -0.51493 -0.84021 0.16994 0 255 0
0.060761 0.0039008 0.00087553 2 1.4292e-06 2.3702e-05 1 0 255 0
0.058861 0.0015003 -0.00088441 2 1.4292e-06 2.3702e-05 1 0 255 0
0.058561 0.0041001 0.00087546 2 1.4292e-06 2.3702e-05 1 0 255 0
0.057761 0.0052003 -0.00087454 2 0.039938 0.9507 -0.3075 0 255 0
0.06166 0.0048998 -0.00087462 2 0.058464 0.99829 -0.00083172 0 255 0
0.058761 0.0060005 -0.00087455 2 0.00041688 -0.0014034 1 0 255 0
0.05946 0.0033005 0.00087551 2 0.052874 -0.18948 -0.98046 0 255 0
0.057661 0.0031998 -0.00087456 2 1.4292e-06 2.3702e-05 1 0 255 0
0.057461 0.0059003 0.00087544 2 0.054566 0.80501 0.59075 0 255 0
0.06136 0.0058002 0.00087542 2 -0.85003 0.27223 -0.45092 0 255 0
0.060261 0.0051003 0.00087546 2 0.040851 -0.13947 0.98938 0 255 0
0.061361 0.0027001 0.00087549 2 0.046093 -0.30081 0.95257 0 255 0
0.058561 0.0042006 -0.00087446 2 0.071156 0.88997 0.45043 0 255 0
0.061561 0.0061008 -0.00087455 2 0.051471 0.3842 -0.92181 0 255 0
0.064361 0.0058001 0.00087542 2 0.070899 -0.38764 -0.91908 0 255 0
0.065161 0.0042002 -0.00087451 2 0.10831 -0.092294 0.98982 0 255 0
0.06286 0.0045002 -0.00087451 2 1.4292e-06 2.3702e-05 1 0 255 0
0.065561 0.0018003 0.00086553 2 1.4292e-06 2.3702e-05 1 0 255 0
0.062761 0.005 0.00087543 2 1.4292e-06 2.3702e-05 1 0 255 0
0.062661 0.0032999 0.00087546 2 0.014981 -0.23311 -0.97233 0 255 0
0.066161 0.0046998 0.00087542 2 0.010578 -0.13687 0.99053 0 255 0
0.066761 0.0016001 0.00086551 2 -1.4292e-06 -2.3702e-05 -1 0 255 0
0.064561 0.0058006 -0.00087457 2 0.055731 0.80751 -0.58721 0 255 0
0.06556 0.0058004 0.00087544 2 -0.13361 -0.52156 0.84269 0 255 0
0.063661 0.0035004 -0.00087454 2 0.025786 0.53889 0.84199 0 255 0
0.06556 0.0028004 -0.0008845 2 0.047591 -0.34973 0.93565 0 255 0
0.063161 0.0057998 -0.00087466 2 0.057415 0.26377 0.96287 0 255 0
0.062561 0.0028002 -0.0008845 2 -1.4292e-06 -2.3702e-05 -1 0 255 0
0.067061 0.0060999 -0.00087459 2 0.042168 0.058556 0.99739 0 255 0
0.065961 0.0034005 0.0008755 2 0.072345 -0.55941 0.82573 0 255 0
0.064961 0.0043007 0.00087551 2 0.065053 -0.84551 -0.52997 0 255 0
0.06256 0.0020003 0.00087552 2 0.043373 0.53469 -0.84393 0 255 0
0.06616 0.0014997 -0.00088448 2 -0.14065 -0.56795 0.81095 0 255 0
0.065961 0.0050004 -0.0008745 2 0.052913 -0.17745 -0.9827 0 255 0
0.064361 0.0029005 0.00087553 2 0.025349 0.073229 -0.99699 0 255 0
0.063961 0.0018003 0.00086553 2 0.044592 0.15424 0.98702 0 255 0
0.06386 0.0044005 0.00087549 2 1.4292e-06 2.3702e-05 1 0 255 0
0.06366 0.0021006 -0.00088446 2 -0.16444 0.95636 0.24152 0 255 0
0.066761 0.0039002 -0.00088448 2 0.045899 0.83525 0.54795 0 255 0
0.072061 0.0025998 0.00086546 2 1.4292e-06 2.3702e-05 1 0 255 0
0.06976 0.0058002 -0.00087453 2 -1.4292e-06 -2.3702e-05 -1 0 255 0
0.071461 0.0042006 0.00087549 2 0.0040267 0.020968 0.99977 0 255 0
0.067361 0.0050002 0.00087544 2 -0.0032934 0.99692 0.078274 0 255 0
0.07036 0.0030002 -0.00088455 2 0.049865 -0.60882 -0.79175 0 255 0
0.068061 0.0048 -0.00087455 2 -1.4292e-06 -2.3702e-05 -1 0 255 0
0.070461 0.0042998 -0.00088457 2 0.12569 -0.75782 -0.64023 0 255 0
0.068161 0.0061 0.00087539 2 -1.4292e-06 -2.3702e-05 -1 0 255 0
0.068761 0.0027003 -0.00088451 2 -1.4292e-06 -2.3702e-05 -1 0 255 0
0.068361 0.0041 0.00087544 2 0.061612 0.045531 -0.99707 0 255 0
0.067361 0.0014997 -0.00088455 2 0.13207 -0.94522 -0.29854 0 255 0
0.069261 0.0043998 -0.00088453 2 1.4292e-06 2.3702e-05 1 0 255 0
0.06926 0.0053003 0.00087545 2 -0.0010773 -0.0036246 0.99999 0 255 0
0.069261 0.0024008 0.00086556 2 0.038193 0.49121 -0.87021 0 255 0
0.07056 0.0053 0.00087542 2 -1.4292e-06 -2.3702e-05 -1 0 255 0
0.072061 0.0037006 -0.0008845 2 0.051105 0.94062 0.33561 0 255 0
0.070561 0.0016004 0.00086554 2 -1.4292e-06 -2.3702e-05 -1 0 255 0
0.07116 0.0013998 -0.00088452 2 0.056093 -0.29673 0.95332 0 255 0
0.06986 0.0016998 -0.00088456 2 -0.00031797 -0.14415 -0.98956 0 255 0
0.070861 0.0030008 0.00086555 2 -1.4292e-06 -2.3702e-05 -1 0 255 0
0.067461 0.0026001 0.0008655 2 0.45884 -0.49733 -0.73629 0 255 0
0.071661 0.0054004 -0.00088458 2 1.4292e-06 2.3702e-05 1 0 255 0
0.072161 0.0014002 0.00086553 2 0.069795 -0.95022 -0.30367 0 255 0
0.069761 0.0039999 0.00087544 2 1.4292e-06 2.3702e-05 1 0 255 0
0.06856 0.0060003 -0.00087452 2 0.00075129 -0.14427 -0.98954 0 255 0
0.072561 0.0019004 -0.00088444 2 0.056147 -0.51177 0.85729 0 255 0
0.077161 0.0032003 0.0008655 2 1.4292e-06 2.3702e-05 1 0 255 0
0.075861 0.0035002 0.00086548 2 1.4292e-06 2.3702e-05 1 0 255 0
0.077261 0.0046999 0.00087542 2 0.047602 -0.29268 -0.95502 0 255 0
0.072961 0.0030002 -0.00088451 2 0.099109 -0.98353 0.15107 0 255 0
0.075261 0.0025001 -0.00088446 2 0.0014051 -0.0039544 0.99999 0 255 0
0.076061 0.0046999 0.00087543 2 -0.00090891 -0.14508 -0.98941 0 255 0
0.076261 0.0046004 -0.00088452 2 0.04792 -0.49749 0.86614 0 255 0
0.07336 0.0040001 0.00087546 2 -1.4292e-06 -2.3702e-05 -1 0 255 0
0.076261 0.0033003 -0.00088447 2 0.048079 -0.12511 -0.99098 0 255 0
0.074161 0.0036002 -0.00088449 2 1.4292e-06 2.3702e-05 1 0 255 0
0.074861 0.0022001 0.00086549 2 0.06341 -0.88131 0.46825 0 255 0
0.07626 0.0061001 0.00087541 2 0.00057571 -0.0025295 1 0 255 0
0.07386 0.0017004 0.00086553 2 -0.01472 -0.85245 -0.52259 0 255 0
0.074861 0.0045996 -0.0008846 2 -1.4292e-06 -2.3702e-05 -1 0 255 0
0.07326 0.0028001 0.00086549 2 -0.83727 -0.1378 0.52914 0 255 0
0.07446 0.0035002 0.00086548 2 0.046471 -0.029893 -0.99847 0 255 0
0.077261 0.0017998 0.00086548 2 -1.4292e-06 -2.3702e-05 -1 0 255 0
0.076561 0.0059 -0.00088457 2 1.4292e-06 2.3702e-05 1 0 255 0
0.07376 0.0051999 -0.00088454 2 0.041481 0.16789 -0.98493 0 255 0
0.07266 0.0049001 0.00087543 2 1.4292e-06 2.3702e-05 1 0 255 0
0.074261 0.0050001 0.00087544 2 0.03763 -0.14079 -0.98933 0 255 0
0.076061 0.0021 0.0008655 2 0.04144 0.69403 -0.71874 0 255 0
0.079261 0.0030996 -0.00088458 2 0.05274 -0.81131 -0.58222 0 255 0
0.080361 0.0045001 -0.00088459 2 1.4292e-06 2.3702e-05 1 0 255 0
0.080961 0.0019995 -0.00088453 2 1.4292e-06 2.3702e-05 1 0 255 0
0.07786 0.0044003 -0.00088448 2 0.055845 0.99764 -0.039661 0 255 0
0.079061 0.0061001 -0.00088458 2 1.4292e-06 2.3702e-05 1 0 255 0
0.07846 0.0038001 0.00086546 2 -0.00091889 0.002455 -1 0 255 0
0.080261 0.0039001 0.00086546 2 1.4292e-06 2.3702e-05 1 0 255 0
0.08166 0.0031999 -0.00088452 2 0.047269 0.71096 0.70165 0 255 0
0.080261 0.0025007 0.00086555 2 -0.000147 -0.0036742 0.99999 0 255 0
0.08176 0.0045003 -0.00088456 2 -0.00014626 -0.0019647 1 0 255 0
0.07986 0.0056999 0.0008754 2 1.4292e-06 2.3702e-05 1 0 255 0
0.078661 0.0015002 0.00086552 2 0.12998 -0.91035 0.39289 0 255 0
0.079061 0.0046999 -0.00088459 2 1.4292e-06 2.3702e-05 1 0 255 0
0.080961 0.0052004 0.00087546 2 0.04065 -0.25194 -0.96689 0 255 0
0.080461 0.0058005 -0.00088453 2 -0.99898 -0.044021 0.010125 0 255 0
0.081561 0.0035002 0.00086547 2 1.4292e-06 2.3702e-05 1 0 255 0
0.08186 0.0014004 0.00086554 2 1.4292e-06 2.3702e-05 1 0 255 0
0.077861 0.0057002 -0.00088456 2 0.056628 -0.38706 -0.92031 0 255 0
0.078661 0.0014998 -0.0008845 2 0.065342 0.50902 -0.85828 0 255 0
0.077761 0.0024998 -0.00088453 2 -0.0099029 -0.13054 -0.9914 0 255 0
0.078361 0.0056007 0.00087548 2 0.096275 0.99376 0.056309 0 255 0
0.082161 0.0047 0.00086542 2 -1.4292e-06 -2.3702e-05 -1 0 255 0
0.080461 0.0032004 -0.0008845 2 0.011447 -0.14945 0.98871 0 255 0
0.080661 0.0013001 0.00086551 2 0.057345 0.91113 0.4081 0 255 0
0.085461 0.0049995 0.00086538 2 0.0010682 -0.0025386 1 0 255 0
0.084161 0.0033 0.00086546 2 -0.0004813 -0.027239 0.99963 0 255 0
0.08616 0.0035999 0.00086544 2 1.4292e-06 2.3702e-05 1 0 255 0
0.085361 0.0025007 0.00086554 2 1.4292e-06 2.3702e-05 1 0 255 0
0.086761 0.0024006 0.00086554 2 0.00030519 -0.0017273 1 0 255 0
0.082861 0.0056004 -0.0008846 2 0.0034924 -0.14289 0.98974 0 255 0
0.086761 0.0043002 -0.00088459 2 -0.21733 -0.83236 -0.50986 0 255 0
0.08466 0.0028997 -0.00088455 2 1.4292e-06 2.3702e-05 1 0 255 0
0.086961 0.0023002 -0.0008845 2 1.4292e-06 2.3702e-05 1 0 255 0
0.084361 0.0019006 0.00086555 2 0.056568 -0.58936 -0.80589 0 255 0
0.082361 0.0021004 -0.00088447 2 1.4292e-06 2.3702e-05 1 0 255 0
0.083261 0.0052997 0.00086539 2 -0.036182 0.59808 -0.80063 0 255 0
0.084861 0.0055998 -0.00088463 2 0.066325 -0.2303 0.97085 0 255 0
0.08376 0.0043002 -0.00088458 2 0.077283 0.76445 -0.64003 0 255 0
0.082761 0.0032996 -0.00088453 2 0.55304 0.093423 -0.82791 0 255 0
0.086161 0.0060004 0.00086543 2 1.4292e-06 2.3702e-05 1 0 255 0
0.08556 0.0041 -0.00088457 2 -0.00086829 -0.0033929 -0.99999 0 255 0
0.08556 0.0016001 -0.00088447 2 0.044898 0.29562 -0.95425 0 255 0
0.082861 0.0027998 0.00086545 2 0.060444 -0.78566 0.6157 0 255 0
0.087261 0.0055005 -0.00088456 2 1.4292e-06 2.3702e-05 1 0 255 0
0.08326 0.0040999 0.00086543 2 0.05849 -0.9705 -0.23393 0 255 0
0.08696 0.0051001 0.00086543 2 -1.4292e-06 -2.3702e-05 -1 0 255 0
0.089461 0.0040001 0.00086545 2 1.4292e-06 2.3702e-05 1 0 255 0
0.091961 0.0044002 0.00086546 2 -0.015363 -0.89717 0.44142 0 255 0
0.088161 0.0022001 -0.00088454 2 1.4292e-06 2.3702e-05 1 0 255 0
0.087961 0.0045005 -0.0008845 2 -0.00018769 -0.65104 0.75903 0 255 0
0.089761 0.0022996 -0.00088455 2 -0.029294 -0.17293 -0.9845 0 255 0
0.091161 0.0014998 0.00086548 2 -1.4292e-06 -2.3702e-05 -1 0 255 0
0.089661 0.0057995 -0.00088459 2 0.052306 0.42847 -0.90204 0 255 0
0.08806 0.0050998 0.0008654 2 0.053329 0.95808 -0.28147 0 255 0
0.088061 0.0017997 0.00086546 2 -1.4292e-06 -2.3702e-05 -1 0 255 0
0.089461 0.0038001 -0.00088449 2 1.4292e-06 2.3702e-05 1 0 255 0
0.08836 0.0033997 0.00086543 2 0.042048 0.73556 0.67614 0 255 0
0.09226 0.0022 -0.00088452 2 0.056151 -0.20589 -0.97697 0 255 0
0.090561 0.005 0.00086542 2 0.00023046 -0.0043435 0.99999 0 255 0
0.091361 0.0060006 0.00086545 2 0.044385 -0.9974 0.056766 0 255 0
0.091061 0.0026998 -0.00088455 2 -1.4292e-06 -2.3702e-05 -1 0 255 0
0.090361 0.0022999 0.00086547 2 1.4292e-06 2.3702e-05 1 0 255 0
0.090561 0.0035006 0.00086551 2 -0.31151 0.94719 -0.076065 0 255 0
0.090561 0.0047995 -0.00088466 2 0.0014047 -0.0057468 0.99998 0 255 0
0.089361 0.0054005 0.00086546 2 0.063521 0.98481 0.16159 0 255 0
0.091761 0.0044999 -0.00088458 2 0.062836 0.88613 0.45916 0 255 0
0.09246 0.0056002 -0.00088454 2 0.043958 -0.014464 0.99893 0 255 0
0.09306 0.0058001 0.00086541 2 0.060537 0.53976 0.83964 0 255 0
0.095661 0.0029996 -0.00088461 2 1.4292e-06 2.3702e-05 1 0 255 0
0.096561 0.0045996 -0.00088461 2 0.057146 -0.51495 0.85531 0 255 0
0.093261 0.0015003 0.00086552 2 -0.00019306 -0.0026072 1 0 255 0
0.095061 0.0051005 -0.0008845 2 0.067891 -0.92364 -0.37722 0 255 0
0.096561 0.0021997 -0.00088454 2 -1.4292e-06 -2.3702e-05 -1 0 255 0
0.094461 0.0037007 0.00086551 2 0.039893 -0.48363 0.87436 0 255 0
0.096961 0.0051006 0.00086546 2 0.060475 0.39289 -0.9176 0 255 0
0.097061 0.0019002 0.0008655 2 0.051499 -0.18575 0.98124 0 255 0
0.09696 0.0033998 -0.00088452 2 1.4292e-06 2.3702e-05 1 0 255 0
0.09556 0.0030998 0.00086544 2 0.052055 -0.54476 0.83697 0 255 0
0.096361 0.0060999 -0.0008846 2 0.10749 0.98113 -0.16075 0 255 0
0.095261 0.0051995 0.00086537 2 1.4292e-06 2.3702e-05 1 0 255 0
0.092361 0.0027999 0.00086546 2 1.4292e-06 2.3702e-05 1 0 255 0
0.09436 0.0019001 -0.00088449 2 -1.4292e-06 -2.3702e-05 -1 0 255 0
0.094661 0.0022004 0.00086552 2 0.052078 0.34543 -0.937 0 255 0
0.092561 0.0035997 -0.00088459 2 -0.002511 0.00084609 -1 0 255 0
0.096761 0.0038999 0.00086543 2 0.04012 0.95295 -0.30044 0 255 0
0.094561 0.0038 -0.00088451 2 0.046345 -0.23798 -0.97016 0 255 0
0.093861 0.0055002 -0.00088461 2 -0.0094432 0.10388 -0.99454 0 255 0
0.093461 0.0027006 -0.00088451 2 0.053519 -0.51238 -0.85708 0 255 0
0.09306 0.0040003 0.00086546 2 0.072766 0.99561 -0.058879 0 255 0
0.094061 0.005 0.00086542 2 -0.00095993 -0.01074 0.99994 0 255 0
0.10146 0.0046001 -0.00088454 2 1.4292e-06 2.3702e-05 1 0 255 0
0.10136 0.0018001 0.00086549 2 0.038389 -0.45366 0.89035 0 255 0
0.099161 0.0035997 0.00086542 2 0.024645 -0.13272 0.99084 0 255 0
0.10016 0.0055999 0.00086539 2 0.042856 -0.092344 0.9948 0 255 0
0.098161 0.0026 0.00086547 2 0.055292 0.99197 -0.11373 0 255 0
0.10016 0.0024996 -0.00088456 2 0.047184 0.82229 0.56713 0 255 0
0.097661 0.0054996 -0.00088459 2 0.023111 0.89042 0.45456 0 255 0
0.10156 0.0017002 -0.00088451 2 0.04227 0.15749 0.98662 0 255 0
0.098061 0.0041006 0.00086549 2 -1.3708e-06 0.0026405 -1 0 255 0
0.10096 0.0029999 0.00086545 2 0.0018825 -0.14628 -0.98923 0 255 0
0.10056 0.0037002 -0.00088449 2 -1.4292e-06 -2.3702e-05 -1 0 255 0
0.099261 0.0054003 -0.00088461 2 0.051511 0.79075 0.60998 0 255 0
0.097961 0.0018 -0.00088446 2 0.048615 0.38926 -0.91985 0 255 0
0.10026 0.0042 0.00086543 2 -1.4292e-06 -2.3702e-05 -1 0 255 0
0.09946 0.0011999 -0.0008845 2 0.031603 -0.94569 -0.3235 0 255 0
0.099161 0.0034998 -0.00088455 2 0.044973 -0.21285 0.97604 0 255 0
0.098261 0.0052998 0.00086539 2 0.0014754 -0.14827 0.98894 0 255 0
0.10076 0.0056996 -0.00088459 2 -0.78529 0.12887 -0.60556 0 255 0
0.097961 0.0041999 -0.00088453 2 -0.0013808 0.0053723 -0.99998 0 255 0
0.10216 0.0059 -0.00088462 2 0.0016379 -0.14516 -0.98941 0 255 0
0.10116 0.0051 0.00086541 2 0.039825 0.51226 -0.85792 0 255 0
0.099661 0.0018996 0.00086545 2 -0.0010166 0.0050566 -0.99999 0 255 0
0.098561 0.0012999 0.00086549 2 0.045572 0.18733 -0.98124 0 255 0
0.10156 0.0029995 -0.00088454 2 0.052463 -0.33234 0.9417 0 255 0
0.10686 0.0053003 0.00086543 2 0.053221 -0.74904 0.66038 0 255 0
0.10476 0.0047001 -0.00088453 2 -1.4292e-06 -2.3702e-05 -1 0 255 0
0.10246 0.0028001 0.00086547 2 -0.0001218 0.0020385 -1 0 255 0
0.10606 0.0025003 -0.00088451 2 -0.0013937 0.0042528 -0.99999 0 255 0
0.10716 0.0013994 -0.00088456 2 -0.0010754 0.0053477 -0.99999 0 255 0
0.10406 0.0018995 -0.0008846 2 -0.003724 -0.045782 0.99894 0 255 0
0.10526 0.0046002 0.00086544 2 0.059224 -0.0010129 -0.99824 0 255 0
0.10626 0.0022997 0.00086545 2 -0.0022241 0.0056929 -0.99998 0 255 0
0.10386 0.0046994 0.00086536 2 0.041819 -0.99912 0.003299 0 255 0
0.10256 0.0048002 -0.00088456 2 0.0032887 -0.028801 0.99958 0 255 0
0.10566 0.0061 -0.00088457 2 -0.045626 -0.5923 -0.80442 0 255 0
0.10576 0.004 -0.00088453 2 0.074827 0.70422 0.70604 0 255 0
0.10406 0.0028001 0.00086547 2 0.074955 0.99716 -0.0079697 0 255 0
0.10706 0.0041 -0.00088455 2 0.048278 -0.097256 0.99409 0 255 0
0.10256 0.0060004 0.00086543 2 -1.4292e-06 -2.3702e-05 -1 0 255 0
0.10246 0.0048001 0.00086542 2 -0.64694 0.3263 -0.68919 0 255 0
0.10366 0.0014001 0.0008655 2 -1.4292e-06 -2.3702e-05 -1 0 255 0
0.10366 0.0040998 -0.0008846 2 0.052304 0.19879 0.97865 0 255 0
0.10456 0.0030003 -0.00088448 2 0.07845 0.92912 -0.36135 0 255 0
0.10286 0.0027997 -0.00088453 2 -0.001766 -0.13908 -0.99027 0 255 0
0.10696 0.0053002 -0.00088455 2 0.045745 -0.32329 -0.94519 0 255 0
0.10496 0.0018996 0.00086544 2 0.00095862 -0.14258 0.98979 0 255 0
0.10286 0.0011994 -0.00088456 2 1.4292e-06 2.3702e-05 1 0 255 0
0.10716 0.0037002 0.00086546 2 1.4292e-06 2.3702e-05 1 0 255 0
0.10386 0.0060001 0.0008654 2 0.054995 -0.99837 0.015864 0 255 0
0.10586 0.0034996 0.0008654 2 1.4292e-06 2.3702e-05 1 0 255 0
0.11166 0.0057996 0.00086536 2 1.4292e-06 2.3702e-05 1 0 255 0
0.11116 0.0057996 -0.00088467 2 1.4292e-06 2.3702e-05 1 0 255 0
0.11126 0.0030997 -0.0008846 2 -1.4292e-06 -2.3702e-05 -1 0 255 0
0.11186 0.0013999 -0.00088451 2 0.060286 0.47693 0.87686 0 255 0
0.11026 0.0047001 -0.0008846 2 -0.57686 0.5991 0.55527 0 255 0
0.10936 0.0060001 0.0008654 2 1.4292e-06 2.3702e-05 1 0 255 0
0.10976 0.0024998 0.00086545 2 -0.0013881 -0.0035579 0.99999 0 255 0
0.10836 0.0025004 0.0008655 2 0.012402 0.86511 -0.50141 0 255 0
0.10756 0.0027996 -0.00088459 2 -9.1244e-05 -0.0020125 1 0 255 0
0.11016 0.0035996 0.0008654 2 -0.00029971 0.0036192 -1 0 255 0
0.11206 0.0029 0.00086546 2 -0.044752 0.32849 -0.94345 0 255 0
0.10886 0.0030003 -0.00088448 2 0.049015 -0.089645 0.99476 0 255 0
0.10836 0.0052001 -0.00088461 2 0.048591 -0.21651 -0.97507 0 255 0
0.11056 0.0020003 -0.00088446 2 -1.4292e-06 -2.3702e-05 -1 0 255 0
0.10836 0.0044003 0.00086545 2 0 0 0 0 255 0
0.11156 0.0015996 0.00086544 2 0.055613 -0.038848 0.9977 0 255 0
0.10806 0.0056999 0.00086539 2 1.4292e-06 2.3702e-05 1 0 255 0
0.11146 0.0041999 0.00086542 2 1.4292e-06 2.3702e-05 1 0 255 0
0.11026 0.0051001 0.00086542 2 0.048182 0.22906 -0.97222 0 255 0
0.10956 0.0056 -0.00088463 2 0.069959 0.997 -0.033115 0 255 0
0.11156 0.0045997 -0.00088458 2 -1.4292e-06 -2.3702e-05 -1 0 255 0
0.10886 0.0015004 0.00086553 2 0.055643 0.65669 0.7521 0 255 0
0.11366 0.0028996 -0.00088457 2 0.042904 0.99906 0.0063945 0 255 0
0.11486 0.0029 0.00086545 2 1.4292e-06 2.3702e-05 1 0 255 0
0.11456 0.005 0.00086541 2 -0.44543 0.62997 0.63619 0 255 0
0.11656 0.0027 -0.00088456 2 0 0 0 0 255 0
0.11676 0.0012998 -0.00088453 2 1.4292e-06 2.3702e-05 1 0 255 0
0.11306 0.0045998 0.0008654 2 0.002087 -0.001933 1 0 255 0
0.11586 0.004 0.00086543 2 0.058978 -0.80655 0.58822 0 255 0
0.11696 0.0028004 0.0008655 2 1.4292e-06 2.3702e-05 1 0 255 0
0.11236 0.0026998 -0.0008846 2 1.4292e-06 2.3702e-05 1 0 255 0
0.11586 0.0019998 0.00086545 2 -0.57291 -0.72609 -0.38023 0 255 0
0.11686 0.0048002 0.00086543 2 0.049672 0.11309 0.99234 0 255 0
0.11556 0.0014999 -0.0008845 2 1.4292e-06 2.3702e-05 1 0 255 0
0.11286 0.0046 -0.00088453 2 -0.32995 0.47071 -0.81827 0 255 0
0.11686 0.0043 -0.00088458 2 0.017051 -0.05167 0.99852 0 255 0
0.11586 0.0058999 0.00086538 2 -0.46985 -0.57176 -0.67256 0 255 0
0.11376 0.0017001 -0.00088451 2 1.4292e-06 2.3702e-05 1 0 255 0
0.11426 0.0048998 -0.00088465 2 -1.4292e-06 -2.3702e-05 -1 0 255 0
0.11536 0.0032998 -0.00088453 2 0.071229 0.981 -0.18044 0 255 0
0.11346 0.0058997 0.00086536 2 0.032612 -0.023804 -0.99919 0 255 0
0.11546 0.0051994 -0.00088466 2 0.032259 -0.40409 0.91415 0 255 0
0.11326 0.0019003 0.00086551 2 0.19486 0.6296 -0.75209 0 255 0
0.11356 0.0034003 0.00086546 2 0.043545 -0.28631 0.95715 0 255 0
0.11816 0.0043003 -0.00088453 2 -1.4292e-06 -2.3702e-05 -1 0 255 0
0.12056 0.0051026 0.00086564 2 0.033635 0.54074 -0.84052 0 255 0
0.11856 0.0029996 -0.00088459 2 1.4292e-06 2.3702e-05 1 0 255 0
0.11826 0.002 0.00086547 2 0.015391 -0.070432 0.99741 0 255 0
0.12056 0.0030989 0.00086534 2 1.4292e-06 2.3702e-05 1 0 255 0
0.12066 0.0042994 -0.00088466 2 1.4292e-06 2.3702e-05 1 0 255 0
0.12196 0.003397 0.00086516 2 -1.4292e-06 -2.3702e-05 -1 0 255 0
0.12196 0.0047984 0.00086525 2 -0.00084026 0.0017392 -1 0 255 0
0.11936 0.0042997 -0.00088465 2 0.00064423 -0.0023652 1 0 255 0
0.12096 0.0057994 -0.00088464 2 -1.4292e-06 -2.3702e-05 -1 0 255 0
0.11816 0.0042993 0.00086536 2 0.047507 0.99842 0.030255 0 255 0
0.11916 0.0048999 0.0008654 2 1.4292e-06 2.3702e-05 1 0 255 0
0.12156 0.0015013 -0.0008844 2 6.9794e-05 -0.084618 -0.99642 0 255 0
0.11956 0.0024002 0.00086549 2 0.0063521 0.96127 -0.27554 0 255 0
0.11756 0.0055996 -0.00088468 2 -0.000783 0.0025852 -1 0 255 0
0.11956 0.0016997 -0.00088455 2 1.4292e-06 2.3702e-05 1 0 255 0
0.11806 0.0012995 -0.00088456 2 -0.0036396 0.00078506 -0.99999 0 255 0
0.12046 0.0030973 -0.0008848 2 -0.0024083 -0.0037621 0.99999 0 255 0
0.12186 0.0044026 -0.00088436 2 -0.103 -0.59775 -0.79503 0 255 0
0.12186 0.0027988 -0.00088464 2 0.080941 0.82756 0.55551 0 255 0
0.11866 0.0031998 0.00086543 2 -0.024145 -0.99682 -0.075903 0 255 0
0.11876 0.0054012 -0.00088452 2 -0.0098126 -0.70194 0.71218 0 255 0
0.12526 0.0041008 0.0008655 2 0.053269 -0.61279 0.78845 0 255 0
0.12426 0.0052014 0.00086553 2 0.07134 -0.99084 -0.11462 0 255 0
0.12466 0.0050993 -0.00088472 2 0.043473 -0.89691 -0.44007 0 255 0
0.12576 0.0025972 -0.00088476 2 -0.00049884 -0.13242 0.9912 0 255 0
0.12396 0.003499 0.00086534 2 0.046201 -0.63273 0.77298 0 255 0
0.12716 0.0024987 0.00086534 2 -0.58189 0.47247 0.66195 0 255 0
