ply
format ascii 1.0
comment author Paulo Abelha (p.abelha at abdn ac uk)
element vertex 721
property float x
property float y
property float z
property int segm
property float nx
property float ny
property float nz
property uchar red
property uchar green
property uchar blue
end_header
0.040218 -0.0047491 -0.0024144 1 0.15394 -0.98808 0.0014948 255 0 0
0.038918 -0.0067591 -0.0024164 1 0.68221 0.4088 0.6062 255 0 0
0.038398 -0.0044491 -0.0024144 1 0.00017352 0.00051035 -1 255 0 0
0.041588 -0.0074591 -0.0024164 1 -6.1156e-05 -0.00080405 1 255 0 0
0.037058 -0.0045591 0.0024076 1 -0.084282 0.99644 -0.0030108 255 0 0
0.039528 -0.0063791 0.0024066 1 0.069591 -0.17773 -0.98162 255 0 0
0.038648 -0.0072591 0.0024056 1 -2.6322e-05 0.00082938 -1 255 0 0
0.036898 -0.0085891 0.0024046 1 2.2806e-05 0.0009127 -1 255 0 0
0.038208 -0.0058291 -0.0024154 1 1.5392e-05 0.00092435 -1 255 0 0
0.040038 -0.0086891 -0.00098733 1 4.1864e-05 0.00090148 -1 255 0 0
0.038168 -0.0084091 0.0024046 1 0 0 0 255 0 0
0.040798 -0.0065591 -0.0024154 1 9.8076e-05 -0.00074132 1 255 0 0
0.036798 -0.0047891 -0.0024144 1 6.8531e-05 0.00085588 -1 255 0 0
0.038038 -0.0083091 -0.0024174 1 -4.7893e-05 0.000886 -1 255 0 0
0.041358 -0.0071691 0.0024056 1 9.5461e-05 -0.00068357 1 255 0 0
0.039718 -0.0059491 -0.0024154 1 0.040356 0.21974 -0.97472 255 0 0
0.037148 -0.0063591 0.0024066 1 0.00016735 0.00082462 -1 255 0 0
0.039268 -0.0086791 -0.0023454 1 8.9287e-05 0.00081269 -1 255 0 0
0.038838 -0.0086891 0.00093967 1 0.00011633 0.00076916 -1 255 0 0
0.039678 -0.0086891 0.0023736 1 0.0039191 0.77009 -0.63792 255 0 0
0.038308 -0.0086791 -0.00015533 1 -0.00015885 -0.00077853 1 255 0 0
0.040738 -0.0059391 0.0024066 1 0.00013123 0.00076871 -1 255 0 0
0.041548 -0.0086491 -0.0024174 1 0.056268 -0.8095 -0.58441 255 0 0
0.040278 -0.0086891 0.00037867 1 4.4426e-06 -0.00072973 1 255 0 0
0.038448 -0.0060091 0.0024066 1 6.6138e-05 0.00074823 -1 255 0 0
0.040918 -0.0083291 0.0024046 1 5.6107e-05 0.00076768 -1 255 0 0
0.036728 -0.0081291 -0.0024174 1 0.00020194 0.00090768 -1 255 0 0
0.041278 -0.0087091 -0.00017133 1 -1.1095e-05 -0.00083385 1 255 0 0
0.037768 -0.0072091 -0.0024164 1 -0.00016851 -0.0008678 1 255 0 0
0.038608 -0.0086791 -0.0012084 1 -3.0788e-05 -0.0008068 1 255 0 0
0.040058 -0.0074391 -0.0024164 1 -7.974e-05 0.00078578 -1 255 0 0
0.040008 -0.0046891 0.0024076 1 -0.00031898 -0.00086247 1 255 0 0
0.036878 -0.0059091 -0.0024154 1 -0.00010725 0.00083328 -1 255 0 0
0.039838 -0.0074991 0.0024056 1 4.7457e-06 0.00090029 -1 255 0 0
0.040478 -0.0086891 -0.0021424 1 0.00011534 -0.00096562 1 255 0 0
0.037068 -0.0086791 -0.00030933 1 4.0885e-05 -0.00097023 1 255 0 0
0.043938 -0.0088191 0.00079267 1 -3.2187e-05 0.00067909 -1 255 0 0
0.045668 -0.0081691 -0.0024174 1 -0.00021056 -0.00080099 1 255 0 0
0.046128 -0.0055991 -0.0024144 1 -0.0012818 0.037761 -0.99929 255 0 0
0.044578 -0.0077691 -0.0024164 1 0.000126 0.00075909 -1 255 0 0
0.041918 -0.0087391 -0.0013644 1 0.12679 0.97239 -0.19591 255 0 0
0.045008 -0.0076191 0.0024056 1 1.1447e-05 0.00077115 -1 255 0 0
0.044678 -0.0088491 0.0022126 1 0.00032003 0.00097114 -1 255 0 0
0.045688 -0.0088791 -0.00036933 1 0.00018439 -0.00089729 1 255 0 0
0.046618 -0.0075991 -0.0024164 1 -0.00018255 -0.00078446 1 255 0 0
0.043708 -0.0088091 -0.00035933 1 -1.9316e-05 -0.0010713 1 255 0 0
0.041878 -0.0087391 0.0016436 1 1.9575e-05 -0.00086677 1 255 0 0
0.043988 -0.0088191 -0.0018494 1 2.8934e-05 -0.00073213 1 255 0 0
0.043308 -0.0081091 -0.0024174 1 0.000181 0.00070498 -1 255 0 0
0.043688 -0.0066391 -0.0024154 1 0.0052601 0.62758 0.77854 255 0 0
0.043518 -0.0054591 -0.0024144 1 1.8887e-05 -0.0010099 1 255 0 0
0.041908 -0.0051191 -0.0024144 1 -0.33384 -0.94263 -8.6216e-05 255 0 0
0.045928 -0.0056591 0.0024076 1 -0.00020134 -0.00095509 1 255 0 0
0.043288 -0.0078991 0.0024056 1 7.2497e-06 0.0010424 -1 255 0 0
0.042508 -0.0061791 0.0024066 1 8.7699e-05 -0.00069163 1 255 0 0
0.043838 -0.0059391 0.0024066 1 0.12711 0.99189 0.0021674 255 0 0
0.042398 -0.0066491 -0.0024154 1 -0.044017 -0.035611 -0.9984 255 0 0
0.044678 -0.0050191 0.0024076 1 0 0 0 255 0 0
0.044928 -0.0063691 0.0024066 1 -0.16059 0.98702 -2.8396e-05 255 0 0
0.046298 -0.0089091 0.0020506 1 8.4083e-05 -0.0007907 1 255 0 0
0.042038 -0.0049591 0.0024076 1 0.00010559 0.00075811 -1 255 0 0
0.042338 -0.0087491 0.00020367 1 0.030376 -0.99954 0.00043625 255 0 0
0.045368 -0.0088691 0.0012656 1 0.021135 0.99978 0.0010286 255 0 0
0.043588 -0.0046991 0.0024076 1 -0.042657 0.45961 -0.88709 255 0 0
0.044608 -0.0056091 -0.0024144 1 3.6981e-05 0.00082993 -1 255 0 0
0.045448 -0.0088691 -0.0015884 1 -0.0096794 -0.99995 0.00025893 255 0 0
0.043288 -0.0087891 0.0017556 1 0.00014873 -0.00073091 1 255 0 0
0.045668 -0.0068591 -0.0024154 1 0 0 0 255 0 0
0.049018 -0.0068091 -0.0024154 1 0.00017257 0.00085513 -1 255 0 0
0.047858 -0.0077791 0.0024056 1 -0.00037929 -0.00082486 1 255 0 0
0.051028 -0.0090891 9.2668e-05 1 -0.00023918 -0.00083972 1 255 0 0
0.049998 -0.0090491 -0.0012884 1 0.00010151 -0.0011087 1 255 0 0
0.048708 -0.0089991 -0.00021533 1 0.76733 0.51426 0.38307 255 0 0
0.049588 -0.0090391 0.0022476 1 8.0524e-05 0.00093481 -1 255 0 0
0.047938 -0.0064491 -0.0024154 1 0.00011371 -0.00088051 1 255 0 0
0.047158 -0.0044591 -0.0024134 1 0.1121 -0.478 -0.87118 255 0 0
0.049678 -0.0082591 -0.0024164 1 -5.3858e-05 0.00075806 -1 255 0 0
0.051428 -0.0091091 0.0023236 1 -0.00021526 0.00064076 -1 255 0 0
0.049098 -0.0069591 0.0024066 1 -0.0097813 0.025595 -0.99962 255 0 0
0.051648 -0.0091091 -0.0010774 1 0.072747 0.90012 0.42953 255 0 0
0.047398 -0.0089491 0.00020967 1 -0.00013839 -0.00063216 1 255 0 0
0.048358 -0.0089891 0.00092567 1 -0.00024974 -0.00078143 1 255 0 0
0.051498 -0.0087391 -0.0024174 1 -0.00016062 -0.00057992 1 255 0 0
0.050808 -0.0074091 0.0024056 1 9.0675e-06 0.00064648 -1 255 0 0
0.049978 -0.0052491 0.0024076 1 -0.00012003 0.00092798 -1 255 0 0
0.048438 -0.0089791 0.0024046 1 8.2869e-05 0.00085464 -1 255 0 0
0.048598 -0.0086891 -0.0024174 1 0.047567 -0.1626 -0.98554 255 0 0
0.046658 -0.0070691 0.0024056 1 -7.8012e-05 0.00091036 -1 255 0 0
0.046738 -0.0044291 0.0024086 1 -0.0001378 -0.00085855 1 255 0 0
0.047268 -0.0056991 0.0024076 1 1.7876e-05 -0.00082204 1 255 0 0
0.051268 -0.0067791 -0.0024154 1 -0.0001175 -0.00083626 1 255 0 0
0.049748 -0.0059191 -0.0024154 1 -0.53398 -0.8455 0.0018767 255 0 0
0.047058 -0.0089391 -0.0015224 1 0.018811 -0.99981 -0.0049699 255 0 0
0.050938 -0.0049891 -0.0024144 1 -7.8518e-06 0.00069085 -1 255 0 0
0.048658 -0.0055191 -0.0024144 1 0.00013006 -0.0009343 1 255 0 0
0.049738 -0.0090391 0.0010336 1 -0.038138 0.67816 -0.73392 255 0 0
0.048038 -0.0077291 -0.0024164 1 0.00038699 -0.0042126 -0.99999 255 0 0
0.047898 -0.0045791 0.0024086 1 0.00027362 0.0010104 -1 255 0 0
0.047378 -0.0089491 0.0016296 1 -7.0748e-05 0.00081115 -1 255 0 0
0.048348 -0.0059391 0.0024066 1 -5.3173e-05 -0.00084171 1 255 0 0
0.048228 -0.0089791 -0.0012064 1 -0.14245 -0.1243 0.98197 255 0 0
0.050208 -0.0064091 0.0024066 1 -0.00021879 0.00077405 -1 255 0 0
0.056488 -0.0093191 0.0016826 1 8.1708e-05 -0.00071674 1 255 0 0
0.052018 -0.0051991 0.0024076 1 -3.8889e-05 0.00077889 -1 255 0 0
0.056388 -0.0089391 -0.0024174 1 0.020234 0.095494 0.99522 255 0 0
0.053008 -0.0091691 0.00063767 1 -5.0357e-05 0.00065621 -1 255 0 0
0.051908 -0.0070191 0.0024066 1 -4.8884e-05 -0.00059647 1 255 0 0
0.053218 -0.0054791 0.0024076 1 8.792e-05 -0.00080951 1 255 0 0
0.055578 -0.0065091 0.0024066 1 -0.00012022 -0.00066327 1 255 0 0
0.052218 -0.0061991 -0.0024154 1 -9.1866e-06 -0.00077485 1 255 0 0
0.053598 -0.0071991 -0.0024154 1 0.0051232 0.9996 -0.02782 255 0 0
0.052588 -0.0079791 -0.0024164 1 0.00010906 0.00086796 -1 255 0 0
0.052788 -0.0050691 -0.0024144 1 -1.886e-05 0.00077794 -1 255 0 0
0.055528 -0.0048491 0.0024086 1 0.025901 0.15034 -0.98829 255 0 0
0.054798 -0.0089491 0.0024046 1 -0.0002079 -0.00079669 1 255 0 0
0.052358 -0.0091391 0.0015346 1 -0.59949 -0.76253 -0.24323 255 0 0
0.053318 -0.0091191 0.0024046 1 5.5845e-06 -0.00078596 1 255 0 0
0.053648 -0.0060091 -0.0024144 1 -3.8466e-05 0.000717 -1 255 0 0
0.054708 -0.0056891 0.0024076 1 -4.9017e-05 -0.00098547 1 255 0 0
0.056248 -0.0092991 -0.00040833 1 2.872e-05 -0.00094942 1 255 0 0
0.053958 -0.0078491 0.0024056 1 -3.1907e-05 0.00074703 -1 255 0 0
0.054588 -0.0092291 0.00093567 1 6.5984e-05 0.00063596 -1 255 0 0
0.053998 -0.0091991 -0.0018074 1 -9.1294e-06 0.00093098 -1 255 0 0
0.055988 -0.0046391 -0.0024134 1 -0.62712 -0.77306 -0.095399 255 0 0
0.055598 -0.0092691 -0.0017224 1 -0.20502 -0.68475 0.69935 255 0 0
0.054728 -0.0067591 -0.0024154 1 0.015729 0.96638 -0.25662 255 0 0
0.055328 -0.0057591 -0.0024144 1 2.9302e-05 -0.00090643 1 255 0 0
0.052828 -0.0091591 -0.0015234 1 0.00026967 0.00076387 -1 255 0 0
0.055348 -0.0076591 0.0024056 1 5.3686e-05 0.00067256 -1 255 0 0
0.052758 -0.0077891 0.0024056 1 0.00011425 -0.0010318 1 255 0 0
0.056588 -0.0058291 0.0024076 1 9.7125e-06 0.00084317 -1 255 0 0
0.054518 -0.0082991 -0.0024164 1 -0.068043 -0.71508 0.69572 255 0 0
0.054908 -0.0092391 -0.00018433 1 0.90466 -0.42613 0.0011985 255 0 0
0.053778 -0.0065091 0.0024066 1 0.00011186 0.0010244 -1 255 0 0
0.056608 -0.0071391 0.0024066 1 2.6881e-06 0.0010627 -1 255 0 0
0.056038 -0.0077391 -0.0024164 1 -0.00016131 -0.00090321 1 255 0 0
0.053778 -0.0091991 -0.00020333 1 0.00011372 -0.00089904 1 255 0 0
0.059308 -0.0081291 0.0024056 1 -5.2697e-06 0.00057315 -1 255 0 0
0.060438 -0.0059391 0.0024076 1 -0.00024112 -0.00077571 1 255 0 0
0.056788 -0.0082291 0.0024056 1 -0.75414 -0.65409 -0.05864 255 0 0
0.057718 -0.0064491 0.0024066 1 -0.00019897 -0.00097352 1 255 0 0
0.058348 -0.0050791 0.0024076 1 -0.10118 0.99174 -0.07888 255 0 0
0.060848 -0.0081391 -0.0024164 1 -0.019885 0.99958 -0.020932 255 0 0
0.056718 -0.0060491 -0.0024144 1 1.4161e-05 -0.00065663 1 255 0 0
0.058748 -0.0065891 -0.0024154 1 0.00015715 0.0006789 -1 255 0 0
0.056788 -0.0046291 0.0024086 1 -6.2471e-05 -0.00088312 1 255 0 0
0.061338 -0.0073791 0.0024066 1 0.00025477 0.00077943 -1 255 0 0
0.059738 -0.0074791 -0.0024164 1 0.020657 0.12917 0.99141 255 0 0
0.061218 -0.0065991 -0.0024154 1 -0.00012375 -0.00074868 1 255 0 0
0.058208 -0.0054691 -0.0024144 1 3.9055e-05 0.00081248 -1 255 0 0
0.057198 -0.0072091 -0.0024154 1 -0.017882 0.99984 -0.0025004 255 0 0
0.057958 -0.0080491 0.0024056 1 0.00021918 -0.00094072 1 255 0 0
0.060418 -0.0083291 0.0024056 1 -0.00018297 -0.00080372 1 255 0 0
0.060428 -0.0047491 0.0024086 1 -0.00016257 0.00076483 -1 255 0 0
0.059668 -0.0054591 -0.0024144 1 -0.18625 0.9825 0.0017004 255 0 0
0.058568 -0.0086591 -0.0024174 1 -6.2308e-05 0.00099558 -1 255 0 0
0.060758 -0.0053791 -0.0024144 1 8.5572e-05 -0.00088782 1 255 0 0
0.059268 -0.0064191 0.0024066 1 -9.4255e-05 -0.00061889 1 255 0 0
0.057408 -0.0083991 -0.0024164 1 -0.00012544 -0.00079706 1 255 0 0
0.064688 -0.0062591 -0.0024144 1 -0.1037 -0.58098 -0.80729 255 0 0
0.062588 -0.0073091 -0.0024154 1 -0.00012996 0.00091035 -1 255 0 0
0.062928 -0.0084691 0.0024056 1 -0.00013075 -0.00077589 1 255 0 0
0.062268 -0.0091291 -0.0024174 1 -0.33236 -0.94315 -0.0010037 255 0 0
0.066498 -0.0066591 -0.0024154 1 -0.00020361 -0.00068362 1 255 0 0
0.063668 -0.0055691 -0.0024144 1 -3.7365e-05 0.0007895 -1 255 0 0
0.065498 -0.0089291 0.0024046 1 -0.084096 -0.53458 0.84092 255 0 0
0.062298 -0.0057691 0.0024076 1 -6.7461e-05 -0.00079286 1 255 0 0
0.064068 -0.0082091 0.0024056 1 0.00010239 0.00066845 -1 255 0 0
0.065108 -0.0065091 0.0024066 1 0.00012583 0.0010343 -1 255 0 0
0.063108 -0.0083391 -0.0024164 1 8.6619e-05 0.00094059 -1 255 0 0
0.064948 -0.0089491 -0.0024174 1 -7.8691e-05 -0.00080151 1 255 0 0
0.064828 -0.0051091 -0.0024134 1 2.8832e-05 -0.00082788 1 255 0 0
0.062038 -0.0055591 -0.0024144 1 -0.00099598 -0.43597 0.89996 255 0 0
0.065808 -0.0078891 -0.0024164 1 0.00022447 -0.00068602 1 255 0 0
0.064828 -0.0073691 -0.0024154 1 -0.15246 0.98831 -5.3752e-06 255 0 0
0.062468 -0.0070391 0.0024066 1 0.019473 0.72501 -0.68846 255 0 0
0.064748 -0.0051891 0.0024086 1 -0.0001684 0.00089574 -1 255 0 0
0.062848 -0.0046991 0.0024086 1 -0.050823 0.9986 0.014946 255 0 0
0.065998 -0.0045191 0.0024086 1 0.00013249 0.0010575 -1 255 0 0
0.063928 -0.0062291 0.0024076 1 -0.00014181 -0.00084428 1 255 0 0
0.065278 -0.0078191 0.0024056 1 -4.759e-05 0.00085508 -1 255 0 0
0.063698 -0.0070991 -0.0024154 1 -0.17452 0.98465 0.002413 255 0 0
0.066248 -0.0071991 0.0024066 1 0.00011804 0.0008136 -1 255 0 0
0.070108 -0.0080691 -0.0024164 1 -0.038982 0.62579 0.77902 255 0 0
0.066968 -0.0091291 -0.0024174 1 -0.14442 -0.97234 -0.18355 255 0 0
0.070188 -0.0059891 -0.0024144 1 0.00017265 0.0010936 -1 255 0 0
0.068758 -0.0084791 -0.0024164 1 -0.075957 0.66824 -0.74006 255 0 0
0.071148 -0.0066191 0.0024076 1 -3.4836e-05 -0.00083306 1 255 0 0
0.070008 -0.0048291 0.0024086 1 9.3185e-05 -0.000654 1 255 0 0
0.069708 -0.0075691 0.0024066 1 0.00015338 0.00078667 -1 255 0 0
0.071578 -0.0045391 -0.0024134 1 0.00011173 0.00079702 -1 255 0 0
0.069278 -0.0088791 0.0024056 1 0.00017111 0.00093265 -1 255 0 0
0.069798 -0.0047291 -0.0024134 1 -0.00014428 0.00096127 -1 255 0 0
0.068208 -0.0066591 0.0024066 1 0.0010114 -0.037995 -0.99928 255 0 0
0.070028 -0.0060691 0.0024076 1 2.4881e-05 -0.0010074 1 255 0 0
0.070688 -0.0089091 0.0024056 1 -0.074906 0.99649 0.037288 255 0 0
0.067658 -0.0076591 -0.0024154 1 -0.00017304 0.00076681 -1 255 0 0
0.066838 -0.0061791 0.0024076 1 -6.5622e-05 -0.00085758 1 255 0 0
0.068008 -0.0086491 0.0024056 1 0.00024457 0.00088579 -1 255 0 0
0.068018 -0.0052691 0.0024086 1 -0.020349 -0.040584 0.99897 255 0 0
0.071308 -0.0071091 -0.0024154 1 -6.3197e-06 -0.0010897 1 255 0 0
0.066648 -0.0083491 0.0024056 1 -0.00010768 0.00075134 -1 255 0 0
0.066698 -0.0046891 -0.0024134 1 -0.0011692 0.0060718 0.99998 255 0 0
0.067778 -0.0045191 -0.0024134 1 -0.00011892 0.0008077 -1 255 0 0
0.068498 -0.0065891 -0.0024154 1 0.11795 0.99301 -0.0031338 255 0 0
0.069368 -0.0072491 -0.0024154 1 8.0389e-05 0.00073481 -1 255 0 0
0.070848 -0.0077391 0.0024066 1 0.00012859 0.00085904 -1 255 0 0
0.071538 -0.0048691 0.0024086 1 0.066573 -0.99552 -0.06718 255 0 0
0.071228 -0.0086791 -0.0024164 1 0.00018671 -0.00047069 1 255 0 0
0.067658 -0.0057091 -0.0024144 1 -0.00012133 -0.00080809 1 255 0 0
0.072638 -0.0056391 0.0024076 1 8.1173e-05 0.00090799 -1 255 0 0
0.072928 -0.0069291 0.0024066 1 0.00022554 -0.00070133 1 255 0 0
0.074948 -0.0062791 -0.0024144 1 0.00015172 -0.00098538 1 255 0 0
0.073688 -0.0070891 -0.0024154 1 -1.7088e-05 -0.00082821 1 255 0 0
0.072018 -0.0081191 0.0024056 1 -0.39706 -0.91775 0.0086688 255 0 0
0.073088 -0.0047691 -0.0024134 1 -7.6245e-05 -0.00079339 1 255 0 0
0.075268 -0.0048291 0.0024086 1 -9.1498e-05 0.00089415 -1 255 0 0
0.074738 -0.0088391 -0.0024164 1 -4.7609e-05 -0.00081331 1 255 0 0
0.072528 -0.0085491 -0.0024164 1 4.4696e-05 -0.0010754 1 255 0 0
0.074108 -0.0052291 -0.0024134 1 -0.00017467 -0.00080667 1 255 0 0
0.073028 -0.0089391 0.0024056 1 0.00017896 0.00088445 -1 255 0 0
0.075248 -0.0086291 0.0024056 1 -0.00010422 0.00077458 -1 255 0 0
0.075228 -0.0050691 -0.0024134 1 -0.056775 -0.73266 -0.67822 255 0 0
0.073668 -0.0079791 0.0024056 1 0.17216 -0.98507 -0.0010498 255 0 0
0.076198 -0.0081991 -0.0024164 1 -3.0408e-05 0.00066748 -1 255 0 0
0.073938 -0.0061391 0.0024076 1 2.7035e-05 0.00074944 -1 255 0 0
0.074148 -0.0089891 0.0024056 1 -6.0066e-05 -0.00072149 1 255 0 0
0.074788 -0.0074791 -0.0024154 1 0.12604 0.99202 0.0030345 255 0 0
0.072398 -0.0072391 -0.0024154 1 1.9172e-05 0.00067366 -1 255 0 0
0.075958 -0.0077791 0.0024066 1 -4.1778e-05 -0.00086728 1 255 0 0
0.074828 -0.0072691 0.0024066 1 0.097066 0.86438 0.49339 255 0 0
0.076478 -0.0051091 0.0024086 1 -0.00021103 -0.00092227 1 255 0 0
0.076458 -0.0062191 0.0024076 1 -1.9684e-05 0.00097705 -1 255 0 0
0.076268 -0.0063491 -0.0024144 1 -0.00021878 -0.00074678 1 255 0 0
0.072838 -0.0059491 -0.0024144 1 -4.479e-05 -0.00087413 1 255 0 0
0.075058 -0.0059691 0.0024076 1 -7.7626e-05 0.00094195 -1 255 0 0
0.071648 -0.0058391 -0.0024144 1 1.3449e-05 0.00095434 -1 255 0 0
0.073718 -0.0093391 -0.0024174 1 -0.00011089 -0.00082641 1 255 0 0
0.080018 -0.0083491 0.0024056 1 0.61461 -0.56301 -0.55251 255 0 0
0.077938 -0.0058891 0.0024076 1 5.8964e-05 0.00096466 -1 255 0 0
0.077508 -0.0054791 -0.0024134 1 0.0077826 -0.019627 0.99978 255 0 0
0.081298 -0.0064191 -0.0024144 1 0.0045687 0.28419 -0.95876 255 0 0
0.077638 -0.0077191 -0.0024154 1 8.035e-05 0.00095016 -1 255 0 0
0.076838 -0.0091491 -0.0024164 1 3.5228e-05 -0.00069102 1 255 0 0
0.078848 -0.0085691 0.0024056 1 -0.01333 0.99991 -0.00051713 255 0 0
0.080618 -0.0065891 0.0024076 1 9.4341e-05 -0.00082749 1 255 0 0
0.078528 -0.0068091 -0.0024144 1 0.010181 -0.024869 0.99964 255 0 0
0.078858 -0.0066891 0.0024076 1 7.0456e-05 0.00093956 -1 255 0 0
0.079588 -0.0084691 -0.0024164 1 -0.54398 -0.78795 -0.28849 255 0 0
0.080008 -0.0073091 -0.0024154 1 0.1978 -0.98004 -0.020117 255 0 0
0.077528 -0.0088791 0.0024056 1 2.3085e-05 0.00078626 -1 255 0 0
0.081158 -0.0087591 0.0024056 1 -0.00012285 -0.00078262 1 255 0 0
0.080488 -0.0050691 0.0024086 1 0.00013728 0.00081511 -1 255 0 0
0.080708 -0.0051891 -0.0024134 1 5.057e-05 0.00095965 -1 255 0 0
0.079498 -0.0059291 -0.0024144 1 -2.3317e-05 0.0008017 -1 255 0 0
0.078348 -0.0086291 -0.0024164 1 -0.00015019 -0.00082414 1 255 0 0
0.077828 -0.0073291 0.0024066 1 0.64052 0.048884 -0.76639 255 0 0
0.078898 -0.0046991 -0.0024134 1 -0.021623 0.99977 0.00062673 255 0 0
0.079408 -0.0055791 0.0024086 1 -6.3571e-05 0.00075794 -1 255 0 0
0.083398 -0.0061091 -0.0024144 1 -0.11818 0.99299 0.00021536 255 0 0
0.086448 -0.0049591 0.0024086 1 1.1204e-07 -0.00090669 1 255 0 0
0.082858 -0.0076491 -0.0024154 1 -6.5969e-05 -0.0010023 1 255 0 0
0.081888 -0.0079291 0.0024066 1 -0.022244 0.99975 0.0029884 255 0 0
0.085408 -0.0074591 0.0024066 1 1.2018e-05 0.00084251 -1 255 0 0
0.081938 -0.0054291 0.0024086 1 0.00016593 0.00073166 -1 255 0 0
0.084008 -0.0086191 -0.0024164 1 -2.6992e-05 -0.00081319 1 255 0 0
0.084328 -0.0070791 0.0024076 1 0.0001419 0.00068883 -1 255 0 0
0.083258 -0.0072891 0.0024066 1 7.4874e-05 0.00084804 -1 255 0 0
0.084438 -0.0086691 0.0024056 1 0.1369 -0.99058 -0.0024156 255 0 0
0.083158 -0.0057891 0.0024086 1 8.2526e-05 -0.00071488 1 255 0 0
0.082048 -0.0066491 0.0024076 1 0.00016563 0.00078135 -1 255 0 0
0.084958 -0.0057291 -0.0024134 1 9.3662e-05 0.00082861 -1 255 0 0
0.084628 -0.0058991 0.0024086 1 -0.033453 -0.071724 -0.99686 255 0 0
0.085698 -0.0062291 0.0024076 1 0.040453 -0.59138 0.80538 255 0 0
0.084768 -0.0045491 0.0024096 1 -3.3253e-05 0.0008718 -1 255 0 0
0.083598 -0.0047391 -0.0024134 1 3.253e-05 -0.0007413 1 255 0 0
0.085448 -0.0072591 -0.0024154 1 0.00014779 0.00092099 -1 255 0 0
0.081698 -0.0081391 -0.0024154 1 -0.00014703 -0.00080744 1 255 0 0
0.083628 -0.0046291 0.0024096 1 -8.587e-05 -0.000691 1 255 0 0
0.083968 -0.0071491 -0.0024154 1 6.6033e-05 0.0008098 -1 255 0 0
0.086148 -0.0058391 -0.0024134 1 3.294e-06 0.00090341 -1 255 0 0
0.083298 -0.0087491 0.0024056 1 -0.00020502 -0.0010389 1 255 0 0
0.081958 -0.0053591 -0.0024134 1 0.0074149 0.024041 0.99968 255 0 0
0.085288 -0.0086491 -0.0024164 1 -4.6163e-05 -0.00089236 1 255 0 0
0.089558 -0.0052191 0.0024086 1 0.00011028 0.00095399 -1 255 0 0
0.090798 -0.0048991 0.0024096 1 -0.00014364 0.00082753 -1 255 0 0
0.088578 -0.0065591 -0.0024144 1 -0.029081 -0.98918 0.14377 255 0 0
0.086808 -0.0088091 0.0024056 1 0.00013193 0.00076475 -1 255 0 0
0.089448 -0.0044591 -0.0024124 1 -5.7708e-05 -0.00072582 1 255 0 0
0.087248 -0.0063091 -0.0024144 1 0.24522 -0.75996 0.60194 255 0 0
0.088918 -0.0090891 -0.0024164 1 -0.059481 -0.70799 -0.70371 255 0 0
0.090518 -0.0076591 -0.0024154 1 4.2876e-05 0.00098072 -1 255 0 0
0.087788 -0.0048491 0.0024086 1 -8.2798e-05 -0.00080037 1 255 0 0
0.086718 -0.0069191 0.0024076 1 0.00022555 0.0010108 -1 255 0 0
0.090498 -0.0061591 0.0024076 1 0.016611 0.98126 -0.19197 255 0 0
0.089258 -0.0067291 0.0024076 1 0.00016869 -0.00081607 1 255 0 0
0.090808 -0.0089291 0.0024056 1 0.00013591 -0.00081989 1 255 0 0
0.088728 -0.0085591 0.0024056 1 2.2418e-05 -0.00094994 1 255 0 0
0.086708 -0.0077591 -0.0024154 1 2.3256e-05 -0.00095484 1 255 0 0
0.087438 -0.0059091 0.0024086 1 -0.00010245 -0.00075307 1 255 0 0
0.090398 -0.0061491 -0.0024144 1 -2.0138e-05 -0.00087616 1 255 0 0
0.088098 -0.0068091 0.0024076 1 6.2034e-05 0.00087472 -1 255 0 0
0.091198 -0.0072991 0.0024076 1 -0.62377 -0.7816 0.0019503 255 0 0
0.089198 -0.0075791 -0.0024154 1 -0.0003104 -0.00094022 1 255 0 0
0.086838 -0.0049291 -0.0024134 1 2.4023e-05 0.00098692 -1 255 0 0
0.089988 -0.0081491 0.0024066 1 -2.7039e-05 -0.00078658 1 255 0 0
0.091368 -0.0045991 -0.0024124 1 -0.00027723 -0.00075774 1 255 0 0
0.091338 -0.0083891 -0.0024154 1 -0.00017784 -0.00081413 1 255 0 0
0.088498 -0.0051691 -0.0024134 1 0 0 0 255 0 0
0.088078 -0.0080991 -0.0024154 1 0.0070181 0.020363 -0.99977 255 0 0
0.087518 -0.0079691 0.0024066 1 -0.000264 0.017437 -0.99985 255 0 0
0.088548 -0.0057491 0.0024086 1 -0.0002007 -0.00090808 1 255 0 0
0.094798 -0.0055391 -0.0024134 1 0.060218 0.1708 0.98346 255 0 0
0.095208 -0.0085191 0.0024066 1 -0.0096228 0.49412 -0.86934 255 0 0
0.096268 -0.0062491 0.0024086 1 0.00017523 0.0008612 -1 255 0 0
0.094998 -0.0069191 -0.0024144 1 0.00015013 -0.00075132 1 255 0 0
0.092988 -0.0067391 -0.0024144 1 0.18807 -0.97889 -0.08002 255 0 0
0.094048 -0.0044191 -0.0024124 1 -0.64071 -0.75479 -0.14069 255 0 0
0.094258 -0.0081391 -0.0024154 1 0.00012712 -0.00070714 1 255 0 0
0.091668 -0.0064791 -0.0024144 1 0.16156 0.98686 0.00060866 255 0 0
0.092868 -0.0080991 -0.0024154 1 -0.00013779 0.0010247 -1 255 0 0
0.095978 -0.0081391 -0.0024154 1 0.00013345 0.00092217 -1 255 0 0
0.093858 -0.0074991 0.0024066 1 -0.11975 0.73578 -0.66655 255 0 0
0.093068 -0.0054991 0.0024086 1 5.6844e-05 -0.00075963 1 255 0 0
0.092048 -0.0087991 0.0024056 1 0.00013146 -0.00094531 1 255 0 0
0.094268 -0.0048191 0.0024096 1 0 0 0 255 0 0
0.096478 -0.0087791 0.0024056 1 -2.8127e-05 0.00088979 -1 255 0 0
0.092828 -0.0054291 -0.0024134 1 -0.109 -0.99404 -0.0012021 255 0 0
0.096388 -0.0061391 -0.0024134 1 6.6382e-05 -0.00081505 1 255 0 0
0.095478 -0.0073591 0.0024076 1 0.00019634 0.00084543 -1 255 0 0
0.094358 -0.0059591 0.0024086 1 0.099123 -0.99508 -0.00015774 255 0 0
0.096248 -0.0093691 -0.0024164 1 -0.00015888 0.00097446 -1 255 0 0
0.096178 -0.0047191 -0.0024124 1 -0.1637 0.86512 -0.47409 255 0 0
0.093428 -0.0087391 0.0024056 1 0.00015973 0.00070658 -1 255 0 0
0.091948 -0.0061791 0.0024076 1 -0.00010589 -0.00088616 1 255 0 0
0.095668 -0.0050891 0.0024086 1 -0.00021958 0.00090439 -1 255 0 0
0.092638 -0.0071591 0.0024076 1 4.2735e-05 -0.0007857 1 255 0 0
0.094368 -0.0092891 -0.0024164 1 -0.00013743 -0.00096883 1 255 0 0
0.097058 -0.0075491 0.0024066 1 0.0064617 -0.0077177 -0.99995 255 0 0
0.099098 -0.0058291 0.0024086 1 2.3939e-05 -0.0010151 1 255 0 0
0.099068 -0.0073491 -0.0024144 1 -3.4606e-05 -0.00074837 1 255 0 0
0.098518 -0.0058991 -0.0024134 1 -0.040884 0.9975 -0.057696 255 0 0
0.10101 -0.0063391 -0.0024134 1 0.050706 0.99605 -0.072881 255 0 0
0.10054 -0.0081291 0.0024066 1 -0.00014334 -0.00092587 1 255 0 0
0.098098 -0.0066391 0.0024076 1 -0.10792 -0.99308 0.046352 255 0 0
0.099628 -0.0083491 -0.0024154 1 0.40106 0.066352 0.91365 255 0 0
0.099848 -0.0070591 0.0024076 1 -6.4633e-05 0.00084667 -1 255 0 0
0.099308 -0.0084191 0.0024066 1 0.10099 -0.99489 -0.0015846 255 0 0
0.10003 -0.0050591 -0.0024124 1 -0.00011114 0.00091624 -1 255 0 0
0.10158 -0.0046091 0.0024096 1 3.4952e-05 -0.00088917 1 255 0 0
0.1015 -0.0074991 0.0024076 1 -1.9245e-05 0.00082967 -1 255 0 0
0.098158 -0.0078491 0.0024066 1 -1.4036e-05 0.00083719 -1 255 0 0
0.097128 -0.0078491 -0.0024154 1 -0.00020063 0.00078888 -1 255 0 0
0.098428 -0.0045191 -0.0024124 1 -4.5225e-05 -0.00087304 1 255 0 0
0.097758 -0.0091391 -0.0024164 1 0.0042731 -0.034454 -0.9994 255 0 0
0.10078 -0.0056291 0.0024086 1 3.9289e-05 0.0010133 -1 255 0 0
0.10117 -0.0075491 -0.0024144 1 -5.2472e-05 -0.00075938 1 255 0 0
0.10132 -0.0049691 -0.0024124 1 0.0069988 -0.0099316 -0.99993 255 0 0
0.097058 -0.0054191 0.0024086 1 -6.0828e-05 0.0008882 -1 255 0 0
0.1004 -0.0091891 -0.0024164 1 0.10287 -0.72767 0.67817 255 0 0
0.099738 -0.0061191 -0.0024134 1 0.093052 0.99566 0.0016788 255 0 0
0.098058 -0.0049791 0.0024096 1 0.14121 -0.76628 0.6268 255 0 0
0.097498 -0.0063591 -0.0024144 1 -0.00012203 0.00073473 -1 255 0 0
0.099878 -0.0046091 0.0024096 1 0.00016345 0.00068172 -1 255 0 0
0.097608 -0.0089091 0.0024056 1 0.0002804 -0.00091619 1 255 0 0
0.10214 -0.0064991 0.0024076 1 0.00021524 0.00083965 -1 255 0 0
0.10488 -0.0073791 -0.0024144 1 -2.199e-05 0.00082042 -1 255 0 0
0.10353 -0.0082491 -0.0024154 1 0.00024371 0.00066598 -1 255 0 0
0.10372 -0.0058291 0.0024086 1 0.0001383 0.00063405 -1 255 0 0
0.10249 -0.0049591 -0.0024124 1 -0.00010141 0.00070955 -1 255 0 0
0.10352 -0.0059791 -0.0024134 1 -0.00021122 -0.00086826 1 255 0 0
0.10523 -0.0044091 0.0024096 1 -0.00012977 -0.00076862 1 255 0 0
0.10652 -0.0078791 0.0024066 1 -0.00010225 -0.00072805 1 255 0 0
0.10526 -0.0059391 0.0024086 1 -4.9745e-05 0.0010102 -1 255 0 0
0.1027 -0.0074691 0.0024076 1 -0.00019656 -0.00074903 1 255 0 0
0.10211 -0.0083091 -0.0024154 1 -1.2254e-05 0.00070747 -1 255 0 0
0.10218 -0.0065691 -0.0024144 1 -5.6021e-05 0.00094061 -1 255 0 0
0.10364 -0.0089791 0.0024056 1 9.3178e-05 0.00071732 -1 255 0 0
0.10551 -0.0070691 0.0024076 1 0.00016833 0.00068429 -1 255 0 0
0.10597 -0.0078591 -0.0024154 1 -0.0001404 -0.00086961 1 255 0 0
0.10518 -0.0048991 -0.0024124 1 0.0001323 0.00077848 -1 255 0 0
0.10548 -0.0061191 -0.0024134 1 -0.00014644 -0.00079683 1 255 0 0
0.10464 -0.0077791 0.0024066 1 4.2143e-05 0.00072814 -1 255 0 0
0.10621 -0.0092691 0.0024056 1 -3.1298e-05 0.00083777 -1 255 0 0
0.10554 -0.0093491 -0.0024164 1 0.032836 -0.63627 -0.77077 255 0 0
0.10364 -0.0071591 -0.0024144 1 0.00010766 0.00077559 -1 255 0 0
0.10219 -0.0085091 0.0024066 1 -0.00023941 -0.00071132 1 255 0 0
0.10329 -0.0045691 0.0024096 1 1.4738e-05 0.0010911 -1 255 0 0
-0.10835 0.00026098 -0.00042332 1 0 0 0 255 0 0
-0.10879 0.00058098 -0.0020694 1 -7.7342e-05 0.00083638 -1 255 0 0
-0.10861 0.00044098 0.0011096 1 0.021503 -0.67109 0.74107 255 0 0
-0.106 -0.001159 -0.0024154 1 0 0 0 255 0 0
-0.10402 -0.002709 0.0024056 1 -8.5112e-05 0.00084091 -1 255 0 0
-0.10387 -0.002819 -0.0010404 1 7.421e-05 0.00083777 -1 255 0 0
-0.10419 -0.00017902 0.0024076 1 -0.00020722 -0.0008089 1 255 0 0
-0.10561 -0.00036902 0.0024076 1 8.2603e-05 -0.00073281 1 255 0 0
-0.10492 -0.001809 0.0024066 1 0.00013706 0.0007462 -1 255 0 0
-0.10786 -9.902e-05 0.0022646 1 -0.13043 0.99105 0.028281 255 0 0
-0.10615 -0.001329 0.0023656 1 -0.00014263 -0.00080489 1 255 0 0
-0.10739 -0.00042902 0.00070068 1 -0.025185 -0.99961 0.011978 255 0 0
-0.10632 -7.9026e-05 -0.0024144 1 -0.012008 -0.1161 0.99316 255 0 0
-0.10337 -0.003139 -0.0024164 1 0.022416 0.99974 0.0030933 255 0 0
-0.10469 -0.002279 -0.0015744 1 3.2528e-06 -0.00093752 1 255 0 0
-0.10739 -0.00042902 -0.0017144 1 -0.46336 -0.88616 -0.0031478 255 0 0
-0.10437 -0.002499 0.0011106 1 -4.1627e-06 -0.0010057 1 255 0 0
-0.10431 -0.002529 -5.4323e-05 1 -2.0161e-05 0.00081612 -1 255 0 0
-0.10557 -0.001709 0.0014476 1 4.6572e-05 0.00087424 -1 255 0 0
-0.10777 0.00032098 -0.0024144 1 0.00014105 0.00093929 -1 255 0 0
-0.10449 -0.001009 -0.0024154 1 -2.4903e-05 0.00088105 -1 255 0 0
-0.10522 -0.001939 0.00030868 1 -0.14473 -0.98947 -0.00016958 255 0 0
-0.10666 -0.00095902 -0.0010094 1 0.057872 0.99832 -6.4884e-05 255 0 0
-0.10625 -0.001259 0.00066468 1 -7.4627e-05 0.00073543 -1 255 0 0
-0.10445 0.00011098 -0.0024144 1 0.00014941 0.00075304 -1 255 0 0
-0.10565 -0.001659 -0.0011394 1 -0.091688 -0.70209 0.70616 255 0 0
-0.10742 -0.00040902 -0.00040232 1 -2.571e-05 -0.00075364 1 255 0 0
-0.10141 -0.00053902 -0.0024144 1 8.0805e-05 -0.00082208 1 255 0 0
-0.10208 -0.002299 0.0024056 1 1.4867e-05 -0.00068629 1 255 0 0
-0.10078 -0.003159 -0.0024164 1 0.00032276 -0.00085995 1 255 0 0
-0.10315 -0.003289 0.0014556 1 -0.0002367 0.00077517 -1 255 0 0
-0.10283 -0.003499 -0.00033732 1 -2.3491e-05 -0.00086248 1 255 0 0
-0.099052 -0.002539 -0.0024164 1 2.1676e-07 -0.00089366 1 255 0 0
-0.099132 -0.002379 0.0024056 1 -0.1102 -0.60415 -0.78922 255 0 0
-0.10328 -0.001389 -0.0024154 1 -0.00023955 -0.00071134 1 255 0 0
-0.10015 -0.001219 -0.0024154 1 0.0001111 -0.00087224 1 255 0 0
-0.10219 -0.003919 0.0018536 1 0 0 0 255 0 0
-0.10149 0.00033098 0.0024086 1 0.017367 0.87294 -0.48751 255 0 0
-0.10308 -0.00089902 0.0024076 1 -8.6649e-05 -0.00077743 1 255 0 0
-0.10217 -0.001579 -0.0024154 1 -5.3763e-05 -0.00072254 1 255 0 0
-0.10163 -0.004279 -0.0020454 1 -0.046626 0.99891 0.0014285 255 0 0
-0.099832 -0.00037902 0.0024076 1 -0.0001158 0.00086546 -1 255 0 0
-0.10194 -0.004079 0.00065968 1 0.00022567 0.00087818 -1 255 0 0
-0.10271 -0.003579 -0.0015004 1 6.5294e-05 0.0010538 -1 255 0 0
-0.10023 -0.003989 0.0024046 1 0.00014638 0.00072762 -1 255 0 0
-0.10199 -0.003179 -0.0024164 1 0.00012139 -0.00080986 1 255 0 0
-0.099062 1.097e-05 -0.0024144 1 -0.00010407 -0.0007084 1 255 0 0
-0.099582 -0.003559 -0.0024174 1 4.9584e-05 0.00078227 -1 255 0 0
-0.10176 -0.00077902 0.0024076 1 0.62608 0.56316 0.53933 255 0 0
-0.10115 -0.002009 -0.0024154 1 0.06464 -0.99791 -0.0010142 255 0 0
-0.10289 -0.00033902 -0.0024144 1 -0.00018358 -0.00090464 1 255 0 0
-0.098812 -0.001109 0.0024066 1 -3.8875e-05 -0.00096291 1 255 0 0
-0.10078 -0.002319 0.0024056 1 0.00014346 0.000952 -1 255 0 0
-0.099042 -0.003549 0.0024046 1 0.089372 -0.56091 -0.82304 255 0 0
-0.10038 -9.903e-05 -0.0024144 1 -0.00019775 -0.00091885 1 255 0 0
-0.096022 -0.003579 -0.0024174 1 2.3521e-05 0.00077862 -1 255 0 0
-0.094572 -0.002389 -0.0024164 1 0.0028496 -0.0061786 0.99998 255 0 0
-0.093462 -0.003579 0.0024056 1 0.00010936 0.0010546 -1 255 0 0
-0.096512 -0.001839 -0.0024154 1 6.8102e-05 -0.00099376 1 255 0 0
-0.097232 -8.9032e-05 -0.0024144 1 -0.00011057 0.00089434 -1 255 0 0
-0.093542 -0.001489 0.0024066 1 0.31731 0.67827 0.66277 255 0 0
-0.097702 -0.003889 0.0024046 1 -0.000173 -0.00070805 1 255 0 0
-0.095972 -0.003709 0.0024046 1 -0.31927 -0.94728 0.026965 255 0 0
-0.094192 -0.004309 -0.0024174 1 0.12506 0.99215 -0.00026044 255 0 0
-0.093522 0.00052098 0.0024086 1 -0.047205 0.18339 -0.98191 255 0 0
-0.096672 4.0974e-05 0.0024086 1 -0.00038518 -0.00097925 1 255 0 0
-0.097272 -0.003309 -0.0024164 1 9.4429e-06 0.00084893 -1 255 0 0
-0.093682 -0.003099 -0.0024164 1 0.00013049 -0.0009657 1 255 0 0
-0.095002 -0.002979 0.0024056 1 -0.00032242 -0.010295 -0.99995 255 0 0
-0.095082 -0.001279 0.0024066 1 -0.24777 -0.96881 -0.0044628 255 0 0
-0.096312 -0.001079 0.0024076 1 -0.21525 -0.97644 -0.015296 255 0 0
-0.094712 -0.00081904 -0.0024144 1 -0.00013076 -0.00078796 1 255 0 0
-0.097712 -0.002039 -0.0024154 1 -0.00018755 -0.00084502 1 255 0 0
-0.096092 -0.00021904 -0.0024144 1 -1.1043e-06 -0.00098389 1 255 0 0
-0.097902 -0.002609 0.0024056 1 1.8327e-05 0.00066268 -1 255 0 0
-0.096422 -0.002379 0.0024056 1 -9.5303e-05 -0.00087165 1 255 0 0
-0.098152 0.00023098 0.0024086 1 -0.08314 0.99654 0.0013498 255 0 0
-0.095502 -0.00017902 0.0024076 1 0.060924 -0.98715 -0.14769 255 0 0
-0.097602 -0.001109 0.0024076 1 -7.7986e-05 0.00074006 -1 255 0 0
-0.098082 -0.00097904 -0.0024144 1 -6.967e-05 -0.00095763 1 255 0 0
-0.090292 -0.002619 -0.0024164 1 -0.00012172 0.00084474 -1 255 0 0
-0.089652 -0.001929 0.0024066 1 0.00011545 0.00071883 -1 255 0 0
-0.091022 -0.00026902 0.0024076 1 -0.00015351 -0.00088208 1 255 0 0
-0.093302 0.00052096 -0.0024134 1 8.5276e-06 -0.00090651 1 255 0 0
-0.088722 0.00051096 -0.0024134 1 0.00013025 -0.00078427 1 255 0 0
-0.090582 -0.00015904 -0.0024144 1 4.862e-05 -0.00083346 1 255 0 0
-0.091042 -0.003719 -0.0024174 1 0.12568 0.99207 0.0011554 255 0 0
-0.092062 -0.00095904 -0.0024144 1 2.7446e-05 -0.00095201 1 255 0 0
-0.092512 -0.003509 -0.0024164 1 0.00011383 0.00093721 -1 255 0 0
-0.092202 0.00013098 0.0024086 1 5.6962e-05 -0.00095533 1 255 0 0
-0.089792 -0.00080903 0.0024076 1 -0.0001362 0.0008038 -1 255 0 0
-0.091162 -0.003139 0.0024056 1 0.00011699 0.00071034 -1 255 0 0
-0.089112 -0.003369 0.0024056 1 0.00012827 0.0007731 -1 255 0 0
-0.089592 -0.001339 -0.0024154 1 -0.15325 0.98819 0.0009575 255 0 0
-0.088692 -0.003849 -0.0024174 1 3.442e-05 0.00093531 -1 255 0 0
-0.089072 -0.002759 -0.0024164 1 -0.012192 0.010158 0.99987 255 0 0
-0.092012 -0.001989 0.0024066 1 0.016744 -0.69051 0.72313 255 0 0
-0.090792 -0.001459 -0.0024154 1 0.09301 0.96279 -0.25375 255 0 0
-0.092112 -0.002379 -0.0024154 1 4.8384e-05 -0.00079324 1 255 0 0
-0.090992 -0.001369 0.0024066 1 2.0661e-05 0.00090678 -1 255 0 0
-0.093312 -0.00074904 -0.0024144 1 6.6696e-05 0.00072394 -1 255 0 0
-0.088452 -0.001279 0.0024076 1 -0.00012599 -0.00083284 1 255 0 0
-0.088512 -0.00073904 -0.0024144 1 0.057994 0.71869 0.69291 255 0 0
-0.091882 -0.004049 0.0024046 1 -0.049368 0.99877 0.0038402 255 0 0
-0.088942 -0.00011903 0.0024086 1 7.3949e-05 -0.00084982 1 255 0 0
-0.091762 0.00025096 -0.0024134 1 -3.0705e-05 -0.0010772 1 255 0 0
-0.093192 -0.001909 -0.0024154 1 -0.01075 -0.70649 0.70764 255 0 0
-0.083662 -0.001519 0.0024076 1 -1.3844e-05 0.00079325 -1 255 0 0
-0.088282 -0.002379 0.0024066 1 -0.00013409 -0.00084899 1 255 0 0
-0.087432 -0.00054903 0.0024076 1 3.4163e-05 -0.00074024 1 255 0 0
-0.087752 -0.003709 0.0024056 1 0.00022528 0.0010958 -1 255 0 0
-0.083382 -0.002819 -0.0024164 1 9.3932e-05 0.00074087 -1 255 0 0
-0.086502 -0.002289 0.0024066 1 0.00039481 0.00091959 -1 255 0 0
-0.086212 -0.004359 0.0024046 1 -8.2421e-05 -0.00081096 1 255 0 0
-0.087042 -0.003749 -0.0024164 1 -0.00011301 0.00083276 -1 255 0 0
-0.084292 -0.001959 -0.0024154 1 6.5716e-05 0.00085528 -1 255 0 0
-0.084952 -0.002979 -0.0024164 1 0.0032733 -0.0066386 0.99997 255 0 0
-0.087762 0.00059097 0.0024086 1 -0.00013649 0.00096153 -1 255 0 0
-0.086062 -0.00065904 -0.0024144 1 -4.642e-05 -0.00087295 1 255 0 0
-0.085532 -0.002959 0.0024056 1 -5.4661e-06 0.00071257 -1 255 0 0
-0.084502 -0.004329 0.0024046 1 0.00023977 -0.00074492 1 255 0 0
-0.083632 -0.002639 0.0024066 1 -1.1034e-05 0.0009167 -1 255 0 0
-0.086152 -0.00044904 0.0024076 1 0.0044742 0.031042 -0.99951 255 0 0
-0.085192 0.00050096 -0.0024134 1 -4.3686e-05 -0.00084395 1 255 0 0
-0.084142 0.00039096 0.0024086 1 5.1846e-05 0.00070121 -1 255 0 0
-0.087372 -0.00025904 -0.0024144 1 6.1754e-05 -0.00087226 1 255 0 0
-0.087082 -0.001329 -0.0024144 1 6.8101e-05 0.00098296 -1 255 0 0
-0.083472 -0.00011904 -0.0024134 1 0.050755 0.99288 -0.1078 255 0 0
-0.083522 -0.003769 0.0024056 1 5.1069e-06 -0.00099678 1 255 0 0
-0.084392 -0.00076904 -0.0024144 1 -0.00010622 -0.00062684 1 255 0 0
-0.084742 -0.001749 0.0024066 1 -0.081994 -0.68429 0.72459 255 0 0
-0.084862 -0.004229 -0.0024174 1 0.00018057 0.0005022 -1 255 0 0
-0.087282 -0.002499 -0.0024154 1 -0.00020431 -0.0009612 1 255 0 0
-0.086082 -0.002889 -0.0024164 1 1.9814e-05 0.0007666 -1 255 0 0
-0.085042 -0.00026904 0.0024086 1 9.176e-06 0.00071739 -1 255 0 0
-0.088182 -0.001859 -0.0024154 1 -0.033578 0.68861 0.72435 255 0 0
-0.085372 -0.001599 -0.0024154 1 -3.0363e-05 0.0010073 -1 255 0 0
-0.081332 -0.002339 -0.0024154 1 8.6673e-05 -0.00093792 1 255 0 0
-0.079282 -0.00034904 -0.0024134 1 -0.080301 -0.99677 -0.0016978 255 0 0
-0.082242 -0.003749 -0.0024164 1 0.00025598 -0.00076649 1 255 0 0
-0.081572 -0.001519 0.0024076 1 -6.9087e-06 0.0011415 -1 255 0 0
-0.081312 -0.003309 0.0024056 1 -0.15076 0.98764 0.04294 255 0 0
-0.079982 -0.00033904 0.0024086 1 -0.36563 -0.2665 0.89179 255 0 0
-0.080472 -0.003539 -0.0024164 1 -0.13125 -0.99134 -0.0034301 255 0 0
-0.082772 -0.001089 -0.0024144 1 0.012127 -0.41473 0.90986 255 0 0
-0.078742 -0.003839 -0.0024164 1 1.3854e-05 0.00076009 -1 255 0 0
-0.080242 -0.001709 -0.0024154 1 3.6074e-06 -0.00090385 1 255 0 0
-0.081622 -0.00086904 -0.0024144 1 -0.1154 -0.9933 -0.0065517 255 0 0
-0.079342 -0.003449 0.0024056 1 0.00014287 -0.00088909 1 255 0 0
-0.082352 -0.002569 0.0024066 1 -3.9429e-05 -0.00093552 1 255 0 0
-0.081102 0.00053096 0.0024086 1 -0.00080984 -0.0015359 -1 255 0 0
-0.080442 -9.0412e-06 -0.0024134 1 0.00011978 0.00072025 -1 255 0 0
-0.078702 -0.001409 0.0024076 1 -0.10737 0.54425 0.83202 255 0 0
-0.083132 -0.00028904 0.0024086 1 -4.8839e-05 -0.00052121 1 255 0 0
-0.079772 -0.001679 0.0024076 1 0.0042723 0.95381 -0.30038 255 0 0
-0.080432 -0.002579 0.0024066 1 7.3412e-05 -0.00069043 1 255 0 0
-0.079002 -0.001949 -0.0024154 1 0.00012036 0.00072979 -1 255 0 0
-0.081892 -0.00041904 0.0024086 1 -0.00014161 -0.00085016 1 255 0 0
-0.078172 -0.00034904 -0.0024134 1 0.00026179 0.00081146 -1 255 0 0
-0.075212 -0.001169 -0.0024144 1 2.7226e-05 0.00099869 -1 255 0 0
-0.075712 6.0956e-05 -0.0024134 1 -0.0046559 0.25195 -0.96773 255 0 0
-0.077112 -1.9043e-05 -0.0024134 1 -0.060056 0.08583 -0.9945 255 0 0
-0.075562 -0.002529 -0.0024154 1 -3.0323e-05 0.00089796 -1 255 0 0
-0.076552 -0.003299 -0.0024164 1 1.7564e-05 -0.0011192 1 255 0 0
-0.076622 -0.004219 0.0024046 1 7.7406e-05 -0.00085947 1 255 0 0
-0.076052 -0.002769 0.0024066 1 0.08594 -0.97368 0.21112 255 0 0
-0.076562 -0.00069904 0.0024076 1 -0.0001217 0.00072193 -1 255 0 0
-0.074402 0.00057096 -0.0024124 1 6.2821e-05 0.0009504 -1 255 0 0
-0.077432 -0.002299 -0.0024154 1 -0.61992 -0.7584 0.20132 255 0 0
-0.073502 -0.001709 -0.0024144 1 -0.00018492 0.00069515 -1 255 0 0
-0.073632 -0.00027904 -0.0024134 1 0.00017281 -0.00081863 1 255 0 0
-0.076222 0.00037096 0.0024086 1 -0.00011509 -0.00080655 1 255 0 0
-0.074462 -0.003369 0.0024056 1 0.49441 -0.8692 -0.0064807 255 0 0
-0.073992 -0.00031904 0.0024086 1 0.00011647 0.00081662 -1 255 0 0
-0.076882 -0.001979 0.0024066 1 -6.0186e-05 0.00093824 -1 255 0 0
-0.075162 2.0962e-05 0.0024086 1 -1.78e-05 0.00072782 -1 255 0 0
-0.074662 -0.001449 0.0024076 1 8.4499e-05 -0.00079815 1 255 0 0
-0.076692 -0.001289 -0.0024144 1 -0.15394 0.98808 0.0012754 255 0 0
-0.077312 -0.003109 0.0024056 1 -1.6795e-06 0.00080409 -1 255 0 0
-0.075092 -0.003659 -0.0024164 1 -0.0001112 -0.00076174 1 255 0 0
-0.073852 -0.003399 -0.0024164 1 -0.60905 -0.78869 0.08383 255 0 0
-0.078342 -0.002589 0.0024066 1 0.0001523 -0.00073808 1 255 0 0
-0.077622 -0.003669 -0.0024164 1 0.00015098 0.00045993 -1 255 0 0
-0.077702 -0.00069904 0.0024076 1 7.369e-05 0.00072722 -1 255 0 0
-0.078252 0.00045096 0.0024086 1 -0.032651 0.57091 0.82036 255 0 0
-0.074502 -0.002169 -0.0024154 1 7.1998e-05 -0.0008272 1 255 0 0
-0.075552 -0.003779 0.0024056 1 5.9626e-05 0.00086586 -1 255 0 0
-0.071642 -0.00064904 0.0024086 1 -0.00012732 0.00089418 -1 255 0 0
-0.068892 -0.001049 0.0024076 1 -0.00020285 -0.00082684 1 255 0 0
-0.069282 -0.00086905 -0.0024144 1 -6.6732e-05 0.00085114 -1 255 0 0
-0.069372 -0.003529 -0.0024164 1 0.0074175 -0.017209 -0.99982 255 0 0
-0.070962 -0.004059 -0.0024164 1 9.0273e-05 0.00092355 -1 255 0 0
-0.071182 -0.002839 -0.0024154 1 3.0897e-05 0.0010169 -1 255 0 0
-0.071262 -0.003599 0.0024056 1 -2.9785e-05 -0.00076377 1 255 0 0
-0.070922 0.00029096 0.0024086 1 4.7378e-05 0.00068487 -1 255 0 0
-0.069912 -0.003569 0.0024056 1 -0.00013088 -0.00060329 1 255 0 0
-0.071142 -0.00089905 -0.0024144 1 0.011188 0.074929 -0.99713 255 0 0
-0.072112 -0.001499 -0.0024144 1 0.0061701 -0.01276 -0.9999 255 0 0
-0.069112 -0.002339 -0.0024154 1 0.0002762 0.00083579 -1 255 0 0
-0.069092 -0.002369 0.0024066 1 -0.00014624 -0.00066568 1 255 0 0
-0.069332 0.00022096 0.0024086 1 -0.00013663 0.00093083 -1 255 0 0
-0.070322 -0.001199 0.0024076 1 9.3236e-05 0.00088777 -1 255 0 0
-0.072042 -0.004319 -0.0024174 1 -0.044236 -0.74929 0.66077 255 0 0
-0.072272 -0.002159 0.0024066 1 -0.62256 -0.78257 0.00045522 255 0 0
-0.072662 -0.003309 -0.0024164 1 0 0 0 255 0 0
-0.068812 0.00029095 -0.0024134 1 0.00014785 -0.00081714 1 255 0 0
-0.073302 -0.001549 0.0024076 1 2.3282e-05 -0.0010104 1 255 0 0
-0.072402 0.00040096 -0.0024134 1 -5.4105e-05 0.00079328 -1 255 0 0
-0.070602 -0.002599 0.0024066 1 -0.00014654 -0.00078558 1 255 0 0
-0.072552 -0.004219 0.0024056 1 0.00014926 -0.00091547 1 255 0 0
-0.072922 4.096e-05 0.0024086 1 0 0 0 255 0 0
-0.071212 0.00026095 -0.0024134 1 0 0 0 255 0 0
-0.070332 -0.001719 -0.0024144 1 -0.39131 -0.6862 0.6132 255 0 0
-0.072942 -0.003099 0.0024066 1 -3.6654e-07 -0.00097495 1 255 0 0
-0.065182 -0.003959 0.0024056 1 0.11418 0.98691 0.11388 255 0 0
-0.067732 -0.001399 0.0024076 1 3.0294e-05 0.00086736 -1 255 0 0
-0.064582 -0.001369 -0.0024144 1 -0.00012662 -0.00083649 1 255 0 0
-0.066692 0.00031096 0.0024096 1 0.01968 -0.030392 0.99934 255 0 0
-0.067102 -0.003889 0.0024056 1 0.00014151 0.00071056 -1 255 0 0
-0.066332 -0.002269 0.0024066 1 -8.4563e-05 -0.00073286 1 255 0 0
-0.066532 -0.00093904 0.0024086 1 -0.1086 -0.99409 -0.00048194 255 0 0
-0.067092 -0.003269 -0.0024154 1 -0.00026469 -0.00058192 1 255 0 0
-0.064562 -0.002689 0.0024066 1 5.5258e-05 -0.00094705 1 255 0 0
-0.064182 -0.001599 0.0024076 1 -0.065643 -0.89495 0.44132 255 0 0
-0.068302 -0.003179 -0.0024154 1 3.6769e-05 0.00074045 -1 255 0 0
-0.065322 -0.00086904 0.0024086 1 0.00017081 -0.00080806 1 255 0 0
-0.068232 -0.003219 0.0024066 1 7.7422e-05 -0.00096115 1 255 0 0
-0.063382 -0.002629 0.0024066 1 -0.0468 -0.99454 -0.093243 255 0 0
-0.065922 -0.004169 -0.0024164 1 -0.0032758 -0.017546 -0.99984 255 0 0
-0.067352 -0.001619 -0.0024144 1 0.00018814 -0.00061912 1 255 0 0
-0.064852 -0.00022905 -0.0024134 1 0.00014853 -0.00083324 1 255 0 0
-0.067352 0.00026095 -0.0024134 1 4.8039e-05 -0.00081774 1 255 0 0
-0.063782 -0.00044904 0.0024086 1 -0.42104 -0.90704 7.9132e-05 255 0 0
-0.067712 -0.004239 -0.0024164 1 5.4649e-05 0.00089077 -1 255 0 0
-0.063912 -0.003859 -0.0024164 1 -0.037089 0.011893 0.99924 255 0 0
-0.064662 0.00025096 0.0024096 1 -0.00013557 -0.00078676 1 255 0 0
-0.066212 0.00034095 -0.0024124 1 -0.030738 0.70132 -0.71218 255 0 0
-0.067882 -0.00026904 0.0024086 1 0.00042268 0.00079461 -1 255 0 0
-0.063912 -0.002589 -0.0024154 1 2.3642e-05 -0.00084257 1 255 0 0
-0.066242 -0.001299 -0.0024144 1 -0.00013389 -0.00081416 1 255 0 0
-0.065052 -0.002809 -0.0024154 1 0.00017973 0.00076576 -1 255 0 0
-0.062832 0.00031095 0.0024096 1 -0.46354 -0.88608 -0.00022128 255 0 0
-0.060522 -0.001599 0.0024076 1 0.00011078 0.00085567 -1 255 0 0
-0.058652 -0.002779 0.0024066 1 -0.0001606 0.00065373 -1 255 0 0
-0.060602 -0.001889 -0.0024144 1 -6.9387e-05 0.00082092 -1 255 0 0
-0.059612 -0.003009 -0.0024154 1 6.8286e-05 -0.00092561 1 255 0 0
-0.063002 -0.001559 0.0024076 1 0.00010257 0.00083087 -1 255 0 0
-0.062282 -0.00072905 0.0024086 1 -0.00019772 0.001066 -1 255 0 0
-0.059362 -0.001689 -0.0024144 1 -5.3736e-05 -0.00089718 1 255 0 0
-0.058832 -0.00011905 -0.0024134 1 0.00026644 -0.77734 0.62908 255 0 0
-0.063302 -0.00082905 -0.0024134 1 -0.0002284 0.0009702 -1 255 0 0
-0.061812 -0.003059 0.0024066 1 -9.5617e-05 -0.00088513 1 255 0 0
-0.060932 -0.004089 0.0024056 1 5.8115e-05 0.00088551 -1 255 0 0
-0.058522 -0.0029391 -0.0024154 1 7.0708e-05 -0.00068522 1 255 0 0
-0.061262 -0.00024905 0.0024086 1 1.6688e-05 0.00080731 -1 255 0 0
-0.059842 -0.003829 0.0024056 1 0.006098 0.34456 0.93875 255 0 0
-0.060142 -0.00071905 -0.0024134 1 0.10072 0.54701 0.83104 255 0 0
-0.060352 -0.003809 -0.0024164 1 -9.8643e-05 0.00071404 -1 255 0 0
-0.062532 -0.002589 -0.0024154 1 0.27167 0.96239 0.001001 255 0 0
-0.059272 -0.00024905 0.0024086 1 -0.00010329 -0.00085598 1 255 0 0
-0.061322 -0.002939 -0.0024154 1 0.002649 0.99851 -0.05443 255 0 0
-0.062232 -0.001419 -0.0024144 1 -0.00011103 0.00077872 -1 255 0 0
-0.058952 -0.0040391 -0.0024164 1 -4.7759e-05 0.00095193 -1 255 0 0
-0.061722 -0.00043905 -0.0024134 1 5.9262e-05 -0.00080666 1 255 0 0
-0.061872 -0.004319 -0.0024164 1 0.03529 -0.24243 0.96953 255 0 0
-0.062932 -0.003849 0.0024056 1 0.044032 0.99886 -0.018176 255 0 0
-0.061672 -0.001959 0.0024076 1 0.00019984 0.00075506 -1 255 0 0
-0.060722 -0.002709 0.0024066 1 -0.00034489 -0.00088314 1 255 0 0
-0.059422 -0.001899 0.0024076 1 0.00016377 0.00077542 -1 255 0 0
-0.057722 -0.0042691 -0.0024164 1 3.5523e-05 -0.00078973 1 255 0 0
-0.055552 -0.00046905 0.00058067 1 -0.0044596 0.5513 -0.83429 255 0 0
-0.053972 -0.0018291 -0.0024144 1 5.0603e-05 0.00075369 -1 255 0 0
-0.057812 -0.0019091 -0.0024144 1 -1.3232e-05 0.00083646 -1 255 0 0
-0.058352 -0.001259 0.0024076 1 -0.018481 0.43098 -0.90217 255 0 0
-0.055682 -0.003989 0.0024056 1 -8.0223e-05 -0.00088628 1 255 0 0
-0.054462 -0.00051905 -0.0024134 1 0.29774 0.95464 0.004513 255 0 0
-0.055402 -0.002559 0.00096267 1 4.8915e-05 0.00098928 -1 255 0 0
-0.054042 0.00051095 0.0024096 1 0.00014669 0.00069 -1 255 0 0
-0.057072 -0.00052905 0.0024086 1 2.5448e-05 0.00071853 -1 255 0 0
-0.053452 -0.003539 0.0024066 1 0.09982 -0.99501 1.406e-05 255 0 0
-0.054942 -0.00067905 0.0024086 1 -0.13203 0.90353 0.40769 255 0 0
-0.056092 -0.002969 0.0024066 1 0 0 0 255 0 0
-0.055582 -0.003679 0.00088867 1 0.00010027 0.00075772 -1 255 0 0
-0.055342 -0.002159 -0.00025833 1 0 0 0 255 0 0
-0.055302 -0.001739 0.0017616 1 0.00022614 0.0010445 -1 255 0 0
-0.055572 -0.003619 -0.00029133 1 0.047512 -0.064983 0.99675 255 0 0
-0.057292 0.00052095 -0.0024124 1 0.040894 -0.17925 -0.98295 255 0 0
-0.057912 -0.00071905 -0.0024134 1 0.00016643 0.00065026 -1 255 0 0
-0.055672 -0.00076905 -0.0024134 1 0.074714 -0.58814 0.8053 255 0 0
-0.057232 -0.002609 0.0024066 1 0.019237 -0.019494 0.99962 255 0 0
-0.053772 -0.00094905 0.0024086 1 -0.0001203 0.00096022 -1 255 0 0
-0.055202 0.00056095 0.0024096 1 0.045885 0.80627 0.58976 255 0 0
-0.055182 -0.0040491 -0.0024164 1 -0.69531 -0.71871 -0.0003936 255 0 0
-0.055272 -0.0019091 -0.0024144 1 -5.0788e-05 -0.00076381 1 255 0 0
-0.055582 -0.00033905 -0.0013564 1 0.0064392 -0.036819 -0.9993 255 0 0
-0.054872 -0.0029491 -0.0024154 1 -0.50422 -0.86357 -0.002024 255 0 0
-0.058312 -0.003979 0.0024056 1 -0.089574 -0.96405 0.25018 255 0 0
-0.056322 -0.0043691 -0.0024164 1 0.10446 -0.70597 -0.7005 255 0 0
-0.055302 -0.0017391 -0.0012744 1 0.00014763 -0.00087407 1 255 0 0
-0.056012 -0.0028691 -0.0024154 1 2.2134e-05 0.00073795 -1 255 0 0
-0.056782 -0.00094905 -0.0024134 1 0.00015335 0.00069596 -1 255 0 0
-0.056272 -0.001639 0.0024076 1 0.00014797 0.00078259 -1 255 0 0
-0.055772 0.00059095 0.0010236 1 0.046643 0.64512 -0.76266 255 0 0
-0.054852 -0.002809 0.0024066 1 -0.00014642 -0.00073649 1 255 0 0
-0.055542 -0.0034491 -0.0013724 1 0.014093 -0.097033 0.99518 255 0 0
-0.053912 -0.002039 0.0024076 1 -0.21173 -0.265 0.94072 255 0 0
-0.055102 0.00057095 -0.0024124 1 7.7416e-05 -0.00095704 1 255 0 0
-0.057082 -0.0032791 -0.0024154 1 0.0029543 0.99998 0.0046434 255 0 0
-0.056282 0.00029095 0.0024096 1 -4.1706e-05 0.00078839 -1 255 0 0
-0.050612 -0.002429 0.0024076 1 -0.0001428 -0.0007007 1 255 0 0
-0.049412 -0.0012191 0.0024086 1 0.00017828 0.00066146 -1 255 0 0
-0.053172 -0.0039291 -0.0024164 1 -0.00016883 -0.00073359 1 255 0 0
-0.051452 -0.0034891 -0.0024154 1 0.16531 -0.010497 -0.98619 255 0 0
-0.052722 -0.0027891 -0.0024154 1 -0.00011066 -0.0009789 1 255 0 0
-0.052332 -0.002339 0.0024076 1 0.592 0.80591 0.0060811 255 0 0
-0.050232 -0.0033891 -0.0024154 1 0.00010945 -0.00095793 1 255 0 0
-0.051102 -0.00046906 -0.0024134 1 0.00014633 0.00084589 -1 255 0 0
-0.052952 -0.00016905 0.0024096 1 -0.00030939 -0.00045376 1 255 0 0
-0.052212 -8.9058e-05 -0.0024124 1 -0.00027595 0.0008152 -1 255 0 0
-0.049932 -3.9052e-05 0.0024096 1 -0.00022295 -0.00092166 1 255 0 0
-0.050732 -0.00091905 0.0024086 1 0.00014941 0.00071561 -1 255 0 0
-0.050392 -0.003779 0.0024066 1 -0.18738 0.98229 0.0016602 255 0 0
-0.048842 -0.00018905 0.0024096 1 2.8648e-05 0.0008234 -1 255 0 0
-0.051932 -0.003649 0.0024066 1 -7.6479e-05 0.00086829 -1 255 0 0
-0.049632 -0.00052906 -0.0024134 1 -6.0108e-05 0.0007989 -1 255 0 0
-0.051252 -0.0017491 -0.0024144 1 2.7849e-05 0.00087479 -1 255 0 0
-0.050092 -0.0018491 -0.0024144 1 0.00023598 0.00070803 -1 255 0 0
-0.048512 -0.0042991 -0.0024164 1 -0.00016757 0.0010678 -1 255 0 0
-0.053262 0.00057095 -0.0024124 1 -3.744e-05 0.00094731 -1 255 0 0
-0.048572 -0.0021691 0.0024076 1 -0.25341 -0.96736 -0.00030201 255 0 0
-0.052952 -0.0012191 -0.0024134 1 -0.00033189 -0.00078915 1 255 0 0
-0.049012 -0.0026891 -0.0024154 1 -0.13179 0.84182 -0.52343 255 0 0
-0.051792 -0.00053905 0.0024086 1 0.27531 0.95712 -0.090125 255 0 0
