ply
format ascii 1.0
comment author Paulo Abelha (p.abelha at abdn ac uk)
element vertex 1248
property float x
property float y
property float z
property int segm
property uchar red
property uchar green
property uchar blue
end_header
0.14122 0.025613 -0.0008604 19 0 0 255
0.19988 0.027998 -0.0073698 1 255 0 0
0.23751 0.044138 0.0047859 1 255 0 0
0.060442 0.036803 0.00057562 24 64 0 64
0.24397 0.022813 0.0073936 1 255 0 0
0.24904 0.042146 0.0098504 1 255 0 0
0.19919 0.038403 -0.0072339 1 255 0 0
0.058765 0.017772 -0.0017746 24 64 0 64
0.13126 0.031727 0.0013368 19 0 0 255
0.22748 0.023586 -0.00045675 1 255 0 0
0.23646 0.02335 0.0038181 1 255 0 0
0.20391 0.043841 -0.0097847 1 255 0 0
0.17946 0.038091 -0.0010774 1 255 0 0
0.22778 0.023186 0.0019374 1 255 0 0
0.096447 0.025033 -0.001349 18 0 255 0
0.24663 0.01015 0.0086299 1 255 0 0
0.25222 0.013308 0.0113 1 255 0 0
0.17443 0.030752 -0.00017475 1 255 0 0
0.17788 0.020819 -0.00081268 1 255 0 0
0.092984 0.035384 0.00041091 18 0 255 0
0.09456 0.035315 -0.00062324 18 0 255 0
0.21966 0.044024 -0.001891 1 255 0 0
0.0939 0.03495 -0.0013556 18 0 255 0
0.094959 0.030884 -0.0013527 18 0 255 0
0.16598 0.021706 -0.0013962 19 0 0 255
0.024834 0.03062 6.0561e-05 24 64 0 64
0.20172 0.024729 -0.0098435 1 255 0 0
0.18439 0.036652 -0.0048842 1 255 0 0
0.060278 0.0184 0.00053462 24 64 0 64
0.19026 0.020431 -0.0045149 1 255 0 0
0.11565 0.025685 0.0011538 19 0 0 255
0.1862 0.033969 -0.0031371 1 255 0 0
0.1703 0.021363 0.00041915 1 255 0 0
0.24141 0.0397 0.0075126 1 255 0 0
0.020451 0.027203 0.0032188 24 64 0 64
0.089958 0.028206 -0.0014128 18 0 255 0
0.1385 0.020698 0.0013922 19 0 0 255
0.23881 0.039528 0.0064043 1 255 0 0
0.18448 0.029709 -0.0025747 1 255 0 0
0.21934 0.0097271 -0.0042817 1 255 0 0
0.21224 0.016103 -0.0067108 1 255 0 0
0.069632 0.035097 0.00067217 18 0 255 0
0.22959 0.011813 0.00052214 1 255 0 0
0.17036 0.025998 -0.0019085 1 255 0 0
0.028894 0.021665 -0.00066323 24 64 0 64
0.23523 0.022478 0.0032288 1 255 0 0
0.23316 0.032786 0.0022698 1 255 0 0
0.18085 0.022088 -0.0014125 1 255 0 0
0.22701 0.02929 0.0015814 1 255 0 0
0.026669 0.035218 0.0020494 24 64 0 64
0.22943 0.038918 0.00080705 1 255 0 0
0.089563 0.025495 -0.0014229 18 0 255 0
0.020523 0.036827 0.003225 24 64 0 64
0.23286 0.040143 0.0021428 1 255 0 0
0.029869 0.026222 -0.00079516 24 64 0 64
0.12749 0.021481 0.0012739 19 0 0 255
0.058939 0.023829 0.00053159 24 64 0 64
0.10227 0.034977 -0.00079989 18 0 255 0
0.19948 0.044156 -0.0076605 1 255 0 0
0.19506 0.035408 -0.0084819 1 255 0 0
0.16735 0.032125 9.39e-05 1 255 0 0
0.086698 0.019611 -0.0014666 18 0 255 0
0.21398 0.025103 -0.0068815 1 255 0 0
0.11006 0.034635 0.00096935 19 0 0 255
0.17691 0.03912 -0.0029307 1 255 0 0
0.1997 0.026422 -0.0096603 1 255 0 0
0.22016 0.011831 -0.0017245 1 255 0 0
0.02157 0.037783 0.0021757 24 64 0 64
0.17769 0.031911 -0.0030896 1 255 0 0
0.096156 0.029983 0.00095043 18 0 255 0
0.064569 0.036629 -0.0010505 24 64 0 64
0.068288 0.018492 -0.0016694 24 64 0 64
0.14425 0.02069 0.0010352 19 0 0 255
0.13919 0.024841 -0.00088415 19 0 0 255
0.25172 0.023293 0.011083 1 255 0 0
0.15747 0.02911 -0.00076512 1 255 0 0
0.09303 0.020382 0.00089589 18 0 255 0
0.21705 0.015306 -0.0032023 1 255 0 0
0.089645 0.028413 0.00087611 18 0 255 0
0.21892 0.02972 -0.0045208 1 255 0 0
0.045336 0.030506 -0.0018937 24 64 0 64
0.19848 0.0097293 -0.0073351 1 255 0 0
0.15644 0.026325 -0.000726 19 0 0 255
0.14221 0.02793 0.0014481 19 0 0 255
0.18181 0.038735 -0.004025 1 255 0 0
0.20823 0.028259 -0.00863 1 255 0 0
0.18966 0.03545 -0.0042841 1 255 0 0
0.22214 0.015438 -0.0010314 1 255 0 0
0.13109 0.027248 0.0013255 19 0 0 255
0.090281 0.022559 -0.0014213 18 0 255 0
0.22517 0.012694 0.00066858 1 255 0 0
0.20606 0.02539 -0.00733 1 255 0 0
0.19276 0.0097271 -0.0068332 1 255 0 0
0.14688 0.021915 0.0014862 19 0 0 255
0.025146 0.038257 1.592e-05 24 64 0 64
0.21473 0.025342 -0.0057123 1 255 0 0
0.10427 0.02852 0.0010358 18 0 255 0
0.17696 0.021175 -0.002977 1 255 0 0
0.21925 0.014396 -0.004396 1 255 0 0
0.20107 0.025687 -0.0074962 1 255 0 0
0.17467 0.030916 -0.0025473 1 255 0 0
0.22865 0.044146 0.0001684 1 255 0 0
0.21735 0.039596 -0.0030034 1 255 0 0
0.17714 0.030529 -0.0029918 1 255 0 0
0.18122 0.011334 -0.0038851 1 255 0 0
0.062869 0.027665 0.0005826 24 64 0 64
0.23456 0.02145 0.0029093 1 255 0 0
0.076724 0.036096 0.00059965 18 0 255 0
0.21319 0.024538 -0.0050229 1 255 0 0
0.14329 0.025874 0.0014555 19 0 0 255
0.075654 0.02746 0.00072155 18 0 255 0
0.1261 0.02826 0.0012732 19 0 0 255
0.23139 0.030291 0.0014208 1 255 0 0
0.10231 0.034301 0.0010268 18 0 255 0
0.18415 0.032497 -0.0048131 1 255 0 0
0.20743 0.012061 -0.0093862 1 255 0 0
0.03104 0.032856 -0.00095115 24 64 0 64
0.033121 0.032576 -0.0012202 24 64 0 64
0.0235 0.020404 0.0026125 24 64 0 64
0.12294 0.025349 0.0012325 19 0 0 255
0.034134 0.033917 -0.0013398 24 64 0 64
0.18319 0.03242 -0.0021389 1 255 0 0
0.18778 0.020951 -0.0036904 1 255 0 0
0.22432 0.043216 -0.0019179 1 255 0 0
0.15918 0.021374 0.0014473 19 0 0 255
0.20011 0.036279 -0.0096815 1 255 0 0
0.11428 0.021056 0.001129 19 0 0 255
0.18483 0.041769 -0.0026639 1 255 0 0
0.19863 0.018746 -0.0094852 1 255 0 0
0.18178 0.025953 -0.0040409 1 255 0 0
0.19441 0.039012 -0.0058827 1 255 0 0
0.15436 0.030492 -0.00070691 19 0 0 255
0.041483 0.037151 0.00036968 24 64 0 64
0.074084 0.022351 0.00069355 18 0 255 0
0.19127 0.035511 -0.004819 1 255 0 0
0.25168 0.030153 0.011364 1 255 0 0
0.052479 0.023885 -0.00183 24 64 0 64
0.17632 0.035392 -0.00049006 1 255 0 0
0.061703 0.036754 0.00051442 24 64 0 64
0.23644 0.0097107 0.0049678 1 255 0 0
0.1777 0.022309 -0.0031118 1 255 0 0
0.048126 0.030907 0.00042879 24 64 0 64
0.10089 0.033045 -0.0012835 18 0 255 0
0.090189 0.024503 -0.0014182 18 0 255 0
0.040236 0.028856 0.00040203 24 64 0 64
0.17487 0.029453 -0.0025829 1 255 0 0
0.18128 0.041329 -0.0038436 1 255 0 0
0.17962 0.01979 -0.0034972 1 255 0 0
0.040481 0.017093 0.00035938 24 64 0 64
0.042372 0.033387 0.00037134 24 64 0 64
0.12418 0.034017 -0.00095317 19 0 0 255
0.15574 0.030755 -0.00069133 1 255 0 0
0.015498 0.02087 0.0041673 24 64 0 64
0.19127 0.024115 -0.0071869 1 255 0 0
0.071252 0.025472 -0.0016223 18 0 255 0
0.10805 0.023022 -0.001227 19 0 0 255
0.18624 0.043034 -0.003133 1 255 0 0
0.21939 0.042301 -0.0020226 1 255 0 0
0.19986 0.01321 -0.0073994 1 255 0 0
0.24922 0.032969 0.012187 1 255 0 0
0.014906 0.027724 0.0042966 24 64 0 64
0.0399 0.01608 -6.3311e-06 24 64 0 64
0.20615 0.013504 -0.00961 1 255 0 0
0.23185 0.043781 0.0016691 1 255 0 0
0.20658 0.030749 -0.0094951 1 255 0 0
0.2009 0.039376 -0.0074506 1 255 0 0
0.12678 0.02065 -0.0010281 19 0 0 255
0.19532 0.011727 -0.0086286 1 255 0 0
0.048115 0.03735 4.99e-05 24 64 0 64
0.23557 0.011124 0.0033671 1 255 0 0
0.062548 0.035886 -0.0016948 24 64 0 64
0.19443 0.029515 -0.0059094 1 255 0 0
0.18819 0.038655 -0.0037894 1 255 0 0
0.12159 0.01969 0.00045109 19 0 0 255
0.23581 0.013567 0.0034853 1 255 0 0
0.1234 0.022264 0.0012309 19 0 0 255
0.17842 0.03667 -0.0032143 1 255 0 0
0.12657 0.033912 0.00026511 19 0 0 255
0.20225 0.042671 -0.0098076 1 255 0 0
0.18628 0.040857 -0.0031495 1 255 0 0
0.022648 0.023139 0.0027836 24 64 0 64
0.060927 0.031351 -0.0017221 24 64 0 64
0.19451 0.026263 -0.0082919 1 255 0 0
0.21206 0.041157 -0.0077625 1 255 0 0
0.1003 0.035063 -0.0002713 18 0 255 0
0.24768 0.0097021 0.010071 1 255 0 0
0.039424 0.034458 0.00047295 24 64 0 64
0.03721 0.030444 0.00064295 24 64 0 64
0.048705 0.026304 0.00042529 24 64 0 64
0.22567 0.021635 -0.0013225 1 255 0 0
0.083961 0.025431 -0.001484 18 0 255 0
0.05791 0.020566 0.00051341 24 64 0 64
0.20212 0.039223 -0.007522 1 255 0 0
0.050433 0.033487 0.00045944 24 64 0 64
0.05639 0.036987 -0.0011125 24 64 0 64
0.23355 0.021245 0.002426 1 255 0 0
0.23967 0.032245 0.0053651 1 255 0 0
0.046333 0.025671 0.00039809 24 64 0 64
0.24587 0.020273 0.01056 1 255 0 0
0.025026 0.022574 6.5738e-06 24 64 0 64
0.035981 0.020654 -0.001562 24 64 0 64
0.10616 0.034396 0.0010689 19 0 0 255
0.067189 0.033943 -0.0016485 18 0 255 0
0.11054 0.029486 0.0011062 19 0 0 255
0.041727 0.034779 0.00036728 24 64 0 64
0.15373 0.021116 -0.00059704 19 0 0 255
0.21224 0.020321 -0.0077228 1 255 0 0
0.1914 0.010737 -0.0049165 1 255 0 0
0.082617 0.019808 0.00078115 18 0 255 0
0.069107 0.027986 0.0006513 18 0 255 0
0.04582 0.031945 0.00040587 24 64 0 64
0.10549 0.022083 0.0010353 19 0 0 255
0.091703 0.030862 0.00090376 18 0 255 0
0.13818 0.020425 0.00025604 19 0 0 255
0.036086 0.032199 0.00075536 24 64 0 64
0.084465 0.035757 -0.00043935 18 0 255 0
0.031672 0.034838 -0.0010386 24 64 0 64
0.089869 0.020026 0.00086067 18 0 255 0
0.22125 0.042833 -0.0011377 1 255 0 0
0.17044 0.032218 0.00042365 1 255 0 0
0.10878 0.024511 0.0010764 19 0 0 255
0.082918 0.024261 0.00079392 18 0 255 0
0.081712 0.026441 0.00078542 18 0 255 0
0.20124 0.02878 -0.0075075 1 255 0 0
0.2521 0.032687 0.011284 1 255 0 0
0.2211 0.03953 -0.0012156 1 255 0 0
0.24018 0.034162 0.0077892 1 255 0 0
0.21546 0.043704 -0.0038946 1 255 0 0
0.032305 0.015744 -3.3349e-05 24 64 0 64
0.077953 0.018993 -0.0015631 18 0 255 0
0.07369 0.032072 0.00070997 18 0 255 0
0.23045 0.011535 0.0031833 1 255 0 0
0.090995 0.023731 -0.0014111 18 0 255 0
0.19083 0.044111 -0.0070015 1 255 0 0
0.20083 0.012845 -0.007499 1 255 0 0
0.23747 0.039654 0.0065938 1 255 0 0
0.19521 0.02251 -0.0085645 1 255 0 0
0.0184 0.028986 0.0036208 24 64 0 64
0.23717 0.044015 0.0064631 1 255 0 0
0.11824 0.027985 0.001187 19 0 0 255
0.061888 0.019641 -0.0017366 24 64 0 64
0.077869 0.033608 0.0007588 18 0 255 0
0.016475 0.021424 0.0016645 24 64 0 64
0.24184 0.039796 0.0086807 1 255 0 0
0.22743 0.033678 -0.00046104 1 255 0 0
0.10794 0.021941 -0.0012305 19 0 0 255
0.17389 0.015705 -0.00012249 1 255 0 0
0.14306 0.022233 -0.00084758 19 0 0 255
0.016919 0.018759 0.0026321 24 64 0 64
0.14759 0.025185 -0.00079191 19 0 0 255
0.20275 0.020068 -0.0075658 1 255 0 0
0.18049 0.037326 -0.0036473 1 255 0 0
0.073292 0.017556 0.00018234 18 0 255 0
0.080993 0.02871 -0.0015093 18 0 255 0
0.07872 0.03383 -0.0015232 18 0 255 0
0.19962 0.016775 -0.0073588 1 255 0 0
0.18358 0.022754 -0.0046433 1 255 0 0
0.033106 0.03623 -0.0012107 24 64 0 64
0.074895 0.031368 -0.0015701 18 0 255 0
0.24114 0.024149 0.0060484 1 255 0 0
0.22117 0.030426 -0.0011996 1 255 0 0
0.082667 0.027832 0.00079879 18 0 255 0
0.048093 0.031087 -0.0018624 24 64 0 64
0.19819 0.041535 -0.0093561 1 255 0 0
0.2005 0.023314 -0.0074437 1 255 0 0
0.040795 0.018489 -0.001961 24 64 0 64
0.24146 0.033638 0.0062237 1 255 0 0
0.084842 0.028966 -0.0014669 18 0 255 0
0.1783 0.038449 -0.003189 1 255 0 0
0.22451 0.011073 0.00034901 1 255 0 0
0.24381 0.042215 0.0073609 1 255 0 0
0.17784 0.032098 -0.00078166 1 255 0 0
0.24815 0.022111 0.01165 1 255 0 0
0.17856 0.015944 -0.0032833 1 255 0 0
0.19317 0.017334 -0.0054896 1 255 0 0
0.11364 0.026629 0.0011339 19 0 0 255
0.2323 0.034266 0.0041148 1 255 0 0
0.097169 0.029315 0.00096005 18 0 255 0
0.1297 0.023371 0.001302 19 0 0 255
0.087769 0.024088 0.00084644 18 0 255 0
0.16676 0.025073 0.0008538 1 255 0 0
0.17483 0.036975 -0.00022556 1 255 0 0
0.08781 0.027658 0.00085449 18 0 255 0
0.24306 0.011855 0.0069361 1 255 0 0
0.068818 0.030293 0.00065306 18 0 255 0
0.19611 0.036185 -0.0088369 1 255 0 0
0.24045 0.021942 0.0079789 1 255 0 0
0.19446 0.014491 -0.0082949 1 255 0 0
0.21656 0.022873 -0.0034173 1 255 0 0
0.20601 0.037522 -0.0095812 1 255 0 0
0.22567 0.034496 0.00053056 1 255 0 0
0.18749 0.012791 -0.0036088 1 255 0 0
0.042351 0.028173 -0.0019311 24 64 0 64
0.1715 0.034965 0.00021291 1 255 0 0
0.21509 0.034715 -0.0063342 1 255 0 0
0.19064 0.018117 -0.0069925 1 255 0 0
0.25189 0.044122 0.013461 1 255 0 0
0.2238 0.044145 2.8311e-06 1 255 0 0
0.018399 0.022193 0.0036067 24 64 0 64
0.24042 0.014206 0.0066893 1 255 0 0
0.21601 0.021481 -0.0059255 1 255 0 0
0.22574 0.020789 0.00095539 1 255 0 0
0.038007 0.03319 0.00057324 24 64 0 64
0.17402 0.017234 -0.0024752 1 255 0 0
0.13332 0.029634 0.0013548 19 0 0 255
0.087636 0.025677 0.00084837 18 0 255 0
0.041216 0.020064 -0.0019607 24 64 0 64
0.22953 0.034407 0.0026608 1 255 0 0
0.21197 0.030015 -0.0078281 1 255 0 0
0.054499 0.032139 -0.0017904 24 64 0 64
0.11099 0.029781 -0.0011805 19 0 0 255
0.093966 0.0276 -0.0013705 18 0 255 0
0.02781 0.015539 0.0015596 24 64 0 64
0.20052 0.037986 -0.0074138 1 255 0 0
0.059652 0.029792 -0.0017393 24 64 0 64
0.095216 0.023405 -0.0013658 18 0 255 0
0.22025 0.022323 -0.0016574 1 255 0 0
0.21171 0.037751 -0.0070881 1 255 0 0
0.11656 0.029773 -0.0011199 19 0 0 255
0.1974 0.010079 -0.0092529 1 255 0 0
0.01609 0.024398 0.0040597 24 64 0 64
0.18833 0.016422 -0.0038815 1 255 0 0
0.17363 0.018219 -7.5548e-05 1 255 0 0
0.086745 0.026694 -0.001451 18 0 255 0
0.034377 0.0367 0.00094262 24 64 0 64
0.057314 0.03423 -0.0017553 24 64 0 64
0.090847 0.030165 -0.001399 18 0 255 0
0.22188 0.028848 -0.0010454 1 255 0 0
0.22577 0.013731 0.00095486 1 255 0 0
0.24471 0.011799 0.0077204 1 255 0 0
0.080055 0.023757 0.00076164 18 0 255 0
0.1018 0.026047 -0.0012885 18 0 255 0
0.18891 0.011011 -0.0040857 1 255 0 0
0.21246 0.014103 -0.0076293 1 255 0 0
0.11856 0.026642 0.0011876 19 0 0 255
0.037668 0.034943 0.00060814 24 64 0 64
0.20111 0.026236 -0.0098029 1 255 0 0
0.23497 0.019901 0.005357 1 255 0 0
0.20929 0.0098315 -0.0089008 1 255 0 0
0.19655 0.042602 -0.006618 1 255 0 0
0.17199 0.031171 -0.0021265 1 255 0 0
0.18022 0.042908 -0.0017297 1 255 0 0
0.18508 0.02634 -0.0051312 1 255 0 0
0.027234 0.036051 -0.00035609 24 64 0 64
0.21493 0.013433 -0.0042136 1 255 0 0
0.24473 0.034058 0.0099995 1 255 0 0
0.048861 0.019934 -0.0018778 24 64 0 64
0.1996 0.044138 -0.0096131 1 255 0 0
0.024796 0.021565 4.8987e-05 24 64 0 64
0.016399 0.026701 0.0016905 24 64 0 64
0.24204 0.043003 0.0065202 1 255 0 0
0.23305 0.021292 0.0044462 1 255 0 0
0.14056 0.029162 -0.00085999 19 0 0 255
0.22091 0.013037 -0.0036079 1 255 0 0
0.23005 0.029536 0.00077964 1 255 0 0
0.17232 0.027324 0.00015001 1 255 0 0
0.032396 0.023632 0.0011545 24 64 0 64
0.24859 0.031377 0.011879 1 255 0 0
0.20014 0.014094 -0.0097308 1 255 0 0
0.13934 0.022966 -0.0008865 19 0 0 255
0.072245 0.024828 0.00067878 18 0 255 0
0.088059 0.020591 0.00084215 18 0 255 0
0.18819 0.043955 -0.006128 1 255 0 0
0.21933 0.038665 -0.0020591 1 255 0 0
0.18856 0.02162 -0.0039474 1 255 0 0
0.037511 0.023578 -0.0017038 24 64 0 64
0.12657 0.032811 -0.0010045 19 0 0 255
0.18415 0.011266 -0.0025016 1 255 0 0
0.20844 0.015004 -0.0091196 1 255 0 0
0.067431 0.017724 -0.0016804 24 64 0 64
0.18132 0.013121 -0.0015552 1 255 0 0
0.053044 0.016666 -0.0010148 24 64 0 64
0.095937 0.020583 -0.001364 18 0 255 0
0.19886 0.028369 -0.0071916 1 255 0 0
0.084355 0.02681 -0.0014768 18 0 255 0
0.046635 0.036243 0.0004239 24 64 0 64
0.19377 0.036963 -0.0079905 1 255 0 0
0.18947 0.037741 -0.0042184 1 255 0 0
0.23705 0.011682 0.0040743 1 255 0 0
0.10282 0.024573 0.0010115 18 0 255 0
0.052708 0.034417 -0.0018051 24 64 0 64
0.059902 0.027093 -0.0017424 24 64 0 64
0.21942 0.02298 -0.0020532 1 255 0 0
0.21836 0.044093 -0.0025124 1 255 0 0
0.13693 0.032429 -0.00089252 19 0 0 255
0.037131 0.032047 0.00065397 24 64 0 64
0.17981 0.039158 -0.0034966 1 255 0 0
0.25496 0.023525 0.012704 1 255 0 0
0.17665 0.023714 -0.00057671 1 255 0 0
0.18724 0.018468 -0.0058649 1 255 0 0
0.16316 0.023767 0.0011913 1 255 0 0
0.24877 0.031485 0.0096993 1 255 0 0
0.11808 0.03022 0.00119 19 0 0 255
0.063119 0.029682 0.00058963 24 64 0 64
0.2418 0.030386 0.008639 1 255 0 0
0.18207 0.011534 -0.001809 1 255 0 0
0.082295 0.021933 -0.0015096 18 0 255 0
0.20304 0.033854 -0.0075379 1 255 0 0
0.18537 0.044099 -0.0045728 1 255 0 0
0.087107 0.035423 -0.0014285 18 0 255 0
0.088216 0.025195 -0.0014382 18 0 255 0
0.1813 0.029971 -0.0015145 1 255 0 0
0.22579 0.019715 0.0009795 1 255 0 0
0.23959 0.022769 0.0075694 1 255 0 0
0.083544 0.028213 -0.0014826 18 0 255 0
0.075481 0.035449 -0.001555 18 0 255 0
0.11802 0.023844 0.0011757 19 0 0 255
0.19199 0.033274 -0.005064 1 255 0 0
0.17829 0.023918 -0.00088302 1 255 0 0
0.19919 0.01541 -0.0072806 1 255 0 0
0.18626 0.009729 -0.0045888 1 255 0 0
0.2147 0.012036 -0.0043298 1 255 0 0
0.24187 0.013035 0.0063693 1 255 0 0
0.1877 0.026664 -0.0060001 1 255 0 0
0.14135 0.024924 0.0014323 19 0 0 255
0.2559 0.012029 0.013927 1 255 0 0
0.14225 0.027069 -0.000846 19 0 0 255
0.22345 0.0097221 -0.0015455 1 255 0 0
0.20855 0.015553 -0.0068292 1 255 0 0
0.064376 0.030243 -0.001687 24 64 0 64
0.12582 0.033818 -0.0010105 19 0 0 255
0.20172 0.023219 -0.0098467 1 255 0 0
0.22054 0.0098401 -0.0037916 1 255 0 0
0.19683 0.029198 -0.009055 1 255 0 0
0.20675 0.034884 -0.0071866 1 255 0 0
0.12144 0.022691 0.0012105 19 0 0 255
0.085574 0.027915 -0.0014612 18 0 255 0
0.049841 0.032985 -0.0018393 24 64 0 64
0.22843 0.034331 0.0022699 1 255 0 0
0.2158 0.014439 -0.0060374 1 255 0 0
0.095196 0.029521 -0.001353 18 0 255 0
0.021439 0.018567 0.0030088 24 64 0 64
0.24281 0.02976 0.0088186 1 255 0 0
0.15595 0.027772 0.0015951 1 255 0 0
0.20012 0.01442 -0.0074235 1 255 0 0
0.13741 0.031016 0.0014024 19 0 0 255
0.025015 0.0241 1.1854e-05 24 64 0 64
0.20898 0.032138 -0.006678 1 255 0 0
0.20815 0.028248 -0.0070118 1 255 0 0
0.052572 0.036528 -0.0018021 24 64 0 64
0.21197 0.033847 -0.0055804 1 255 0 0
0.19715 0.031766 -0.0091369 1 255 0 0
0.18179 0.037129 -0.0016625 1 255 0 0
0.04791 0.032182 -0.0018621 24 64 0 64
0.047894 0.027865 -0.0018714 24 64 0 64
0.20748 0.041323 -0.0093136 1 255 0 0
0.18131 0.042558 -0.0014928 1 255 0 0
0.049631 0.02327 0.00042892 24 64 0 64
0.18553 0.011161 -0.0053142 1 255 0 0
0.079224 0.030329 0.00076658 18 0 255 0
0.026038 0.033396 0.0021526 24 64 0 64
0.14443 0.029238 -0.00081771 19 0 0 255
0.21096 0.01186 -0.0060526 1 255 0 0
0.18996 0.023267 -0.0044084 1 255 0 0
0.22584 0.031244 0.0010289 1 255 0 0
0.058559 0.025841 0.00053173 24 64 0 64
0.095843 0.02168 -0.0013627 18 0 255 0
0.20053 0.015868 -0.0074619 1 255 0 0
0.221 0.032229 -0.0035258 1 255 0 0
0.10231 0.021709 0.00099992 18 0 255 0
0.17828 0.017525 -0.0032298 1 255 0 0
0.18646 0.026685 -0.0055901 1 255 0 0
0.14681 0.023856 0.0014896 19 0 0 255
0.11678 0.023783 0.0011621 19 0 0 255
0.029079 0.031198 0.0016387 24 64 0 64
0.02019 0.020376 0.00094109 24 64 0 64
0.076419 0.018127 -0.0015817 18 0 255 0
0.030799 0.028297 -0.00092573 24 64 0 64
0.25511 0.033228 0.012723 1 255 0 0
0.098558 0.018676 -0.00058291 18 0 255 0
0.049766 0.036016 0.00045755 24 64 0 64
0.082292 0.032799 -0.0014865 18 0 255 0
0.18236 0.030811 -0.0042206 1 255 0 0
0.2239 0.031476 -0.0021434 1 255 0 0
0.23014 0.020766 0.00080335 1 255 0 0
0.030168 0.024411 0.0014663 24 64 0 64
0.22364 0.0097893 -6.9062e-05 1 255 0 0
0.10138 0.028385 -0.0012881 18 0 255 0
0.14882 0.032937 0.00048183 19 0 0 255
0.022192 0.036913 0.00058677 24 64 0 64
0.16064 0.027079 0.0013758 19 0 0 255
0.10108 0.019993 -0.0013093 18 0 255 0
0.060614 0.022127 0.00054622 24 64 0 64
0.17844 0.030891 -0.00323 1 255 0 0
0.092563 0.035085 -0.0013698 18 0 255 0
0.081505 0.035887 -0.00061002 18 0 255 0
0.19763 0.030564 -0.0092749 1 255 0 0
0.15714 0.02804 0.0015463 1 255 0 0
0.22732 0.044144 0.00096667 1 255 0 0
0.21372 0.021799 -0.0070146 1 255 0 0
0.20872 0.0097318 -0.0075119 1 255 0 0
0.18327 0.028908 -0.0021714 1 255 0 0
0.040422 0.033545 0.00039845 24 64 0 64
0.19273 0.02564 -0.0076696 1 255 0 0
0.057503 0.025822 0.00052018 24 64 0 64
0.19696 0.0098197 -0.0068007 1 255 0 0
0.02746 0.031207 -0.00040457 24 64 0 64
0.20739 0.042076 -0.0070577 1 255 0 0
0.042351 0.031494 -0.001924 24 64 0 64
0.11458 0.029515 0.0011503 19 0 0 255
0.0835 0.029324 0.00081106 18 0 255 0
0.21246 0.02011 -0.0053795 1 255 0 0
0.13265 0.033317 0.0013554 19 0 0 255
0.029296 0.032862 0.0016106 24 64 0 64
0.22571 0.038772 -0.0012686 1 255 0 0
0.21339 0.015833 -0.0049467 1 255 0 0
0.05274 0.033256 0.0004841 24 64 0 64
0.016195 0.022477 0.0017211 24 64 0 64
0.19065 0.015009 -0.0070029 1 255 0 0
0.14451 0.022696 0.001462 19 0 0 255
0.22846 0.03344 3.2728e-05 1 255 0 0
0.25281 0.033744 0.013899 1 255 0 0
0.21949 0.040311 -0.0042231 1 255 0 0
0.18511 0.044081 -0.0031266 1 255 0 0
0.22664 0.032582 -0.00083545 1 255 0 0
0.25297 0.019948 0.0138 1 255 0 0
0.033005 0.018294 0.0010697 24 64 0 64
0.11726 0.027253 0.0011746 19 0 0 255
0.17882 0.039403 -0.0032853 1 255 0 0
0.21971 0.044152 -0.0036442 1 255 0 0
0.021254 0.030529 0.0030698 24 64 0 64
0.19487 0.027574 -0.0084249 1 255 0 0
0.14831 0.031219 0.0015217 19 0 0 255
0.090975 0.026758 0.00088708 18 0 255 0
0.19769 0.028341 -0.009292 1 255 0 0
0.025433 0.027626 -6.2056e-05 24 64 0 64
0.18589 0.028687 -0.0030456 1 255 0 0
0.2043 0.02833 -0.0097845 1 255 0 0
0.22941 0.019447 0.0019382 1 255 0 0
0.18048 0.025313 -0.0013246 1 255 0 0
0.18622 0.025366 -0.0031598 1 255 0 0
0.040902 0.023783 -0.0019562 24 64 0 64
0.19351 0.016939 -0.0079457 1 255 0 0
0.076189 0.030123 0.00073305 18 0 255 0
0.18517 0.040179 -0.0051334 1 255 0 0
0.17896 0.029903 -0.0033329 1 255 0 0
0.19031 0.038592 -0.004494 1 255 0 0
0.19427 0.021091 -0.0058638 1 255 0 0
0.21946 0.030823 -0.0042625 1 255 0 0
0.17367 0.038355 -0.0022003 1 255 0 0
0.21438 0.028687 -0.0044448 1 255 0 0
0.044891 0.02218 -0.0019162 24 64 0 64
0.21715 0.015772 -0.0049031 1 255 0 0
0.17631 0.037499 -0.00048339 1 255 0 0
0.07601 0.01768 -0.00063305 18 0 255 0
0.20254 0.010404 -0.0075853 1 255 0 0
0.047681 0.019855 0.00040039 24 64 0 64
0.20437 0.014784 -0.0075272 1 255 0 0
0.05176 0.03719 -0.0012974 24 64 0 64
0.11777 0.026362 -0.001114 19 0 0 255
0.10853 0.028346 0.0010818 18 0 255 0
0.025487 0.029037 -6.941e-05 24 64 0 64
0.22346 0.013895 -0.0001443 1 255 0 0
0.10829 0.019101 0.00082115 19 0 0 255
0.20908 0.040712 -0.0066302 1 255 0 0
0.21851 0.039167 -0.0024532 1 255 0 0
0.24139 0.041174 0.0084657 1 255 0 0
0.18232 0.013307 -0.0018886 1 255 0 0
0.19063 0.019501 -0.0069859 1 255 0 0
0.16027 0.02997 -0.0009012 19 0 0 255
0.055102 0.016948 -0.0018162 24 64 0 64
0.07377 0.022356 -0.0016015 18 0 255 0
0.061564 0.025426 0.0005636 24 64 0 64
0.066242 0.03184 -0.0016632 18 0 255 0
0.019502 0.036945 0.0013665 24 64 0 64
0.25387 0.040517 0.01362 1 255 0 0
0.14412 0.021658 0.0014556 19 0 0 255
0.062413 0.030921 0.00058457 24 64 0 64
0.1129 0.030519 0.0011341 19 0 0 255
0.21828 0.034612 -0.0025695 1 255 0 0
0.15844 0.021319 0.00069239 19 0 0 255
0.20645 0.010608 -0.0095618 1 255 0 0
0.017156 0.031073 0.0015525 24 64 0 64
0.17392 0.021896 -0.00011432 1 255 0 0
0.053243 0.031351 -0.0018058 24 64 0 64
0.13812 0.023302 -0.000899 19 0 0 255
0.053791 0.019287 0.00046579 24 64 0 64
0.2177 0.028852 -0.002861 1 255 0 0
0.21073 0.022274 -0.0061151 1 255 0 0
0.2076 0.040256 -0.0092922 1 255 0 0
0.22055 0.029087 -0.0037461 1 255 0 0
0.23732 0.024322 0.0046117 1 255 0 0
0.22819 0.038846 0.0021636 1 255 0 0
0.20132 0.028594 -0.009819 1 255 0 0
0.1815 0.01947 -0.0039618 1 255 0 0
0.17113 0.033027 0.00033637 1 255 0 0
0.23243 0.040805 0.0041933 1 255 0 0
0.093363 0.028697 -0.0013747 18 0 255 0
0.21043 0.024496 -0.0084693 1 255 0 0
0.25129 0.030129 0.01289 1 255 0 0
0.13489 0.020706 -0.00093969 19 0 0 255
0.15084 0.024244 -0.00075854 19 0 0 255
0.22019 0.034623 -0.0027659 1 255 0 0
0.19366 0.031499 -0.0056239 1 255 0 0
0.22992 0.040762 0.00074422 1 255 0 0
0.033895 0.015818 -0.00093863 24 64 0 64
0.18602 0.018662 -0.0054604 1 255 0 0
0.057605 0.023306 -0.0017754 24 64 0 64
0.11309 0.034502 -0.00031767 19 0 0 255
0.19366 0.026301 -0.0056349 1 255 0 0
0.23865 0.039524 0.0051704 1 255 0 0
0.24276 0.01991 0.0090733 1 255 0 0
0.062208 0.034493 0.00058994 24 64 0 64
0.10765 0.0257 0.0010666 19 0 0 255
0.25533 0.021496 0.012801 1 255 0 0
0.19778 0.022296 -0.0070032 1 255 0 0
0.15625 0.026784 0.0015805 19 0 0 255
0.089768 0.035317 -0.0013998 18 0 255 0
0.25051 0.012681 0.010485 1 255 0 0
0.042695 0.035211 0.00037875 24 64 0 64
0.030332 0.023062 0.0014397 24 64 0 64
0.22443 0.028966 -0.001289 1 255 0 0
0.016796 0.034351 0.0016293 24 64 0 64
0.05719 0.021612 -0.0017836 24 64 0 64
0.2304 0.010975 0.0009041 1 255 0 0
0.22839 0.015016 0.0015129 1 255 0 0
0.18602 0.040813 -0.0054129 1 255 0 0
0.19443 0.026992 -0.0059151 1 255 0 0
0.036563 0.035374 0.00071594 24 64 0 64
0.19662 0.01813 -0.0090187 1 255 0 0
0.1737 0.03527 -5.0435e-05 1 255 0 0
0.1837 0.01957 -0.0023339 1 255 0 0
0.23714 0.022932 0.0063986 1 255 0 0
0.1961 0.020182 -0.0088685 1 255 0 0
0.15182 0.026667 0.0015502 19 0 0 255
0.10468 0.022275 -0.0012653 18 0 255 0
0.19228 0.021859 -0.0051841 1 255 0 0
0.18763 0.027131 -0.0036265 1 255 0 0
0.13418 0.022858 0.0013497 19 0 0 255
0.1992 0.029937 -0.0072532 1 255 0 0
0.13605 0.020335 -0.00077142 19 0 0 255
0.13349 0.031568 0.0013608 19 0 0 255
0.17464 0.035948 -0.00019744 1 255 0 0
0.069116 0.019825 -0.0016576 24 64 0 64
0.15568 0.029438 0.0015982 1 255 0 0
0.04293 0.032446 0.00037542 24 64 0 64
0.17309 0.023552 -0.0023157 1 255 0 0
0.2472 0.040079 0.010501 1 255 0 0
0.19308 0.036282 -0.0054217 1 255 0 0
0.22284 0.012468 -0.0004435 1 255 0 0
0.20325 0.038896 -0.0075282 1 255 0 0
0.2407 0.024169 0.0080963 1 255 0 0
0.23895 0.023428 0.0050046 1 255 0 0
0.19521 0.033354 -0.0061985 1 255 0 0
0.13463 0.02401 -0.00093548 19 0 0 255
0.075859 0.02078 0.00070955 18 0 255 0
0.16044 0.021911 0.0013783 19 0 0 255
0.22326 0.022283 -0.0024675 1 255 0 0
0.2506 0.021146 0.012816 1 255 0 0
0.21627 0.032267 -0.005776 1 255 0 0
0.13097 0.023186 0.0013154 19 0 0 255
0.10837 0.027079 -0.0012148 18 0 255 0
0.17716 0.012498 -0.0029803 1 255 0 0
0.1149 0.0194 -0.00084286 19 0 0 255
0.20814 0.04416 -0.0083272 1 255 0 0
0.094999 0.026531 -0.0013615 18 0 255 0
0.14259 0.030862 0.0014585 19 0 0 255
0.19898 0.017197 -0.0095541 1 255 0 0
0.020375 0.033595 0.00093278 24 64 0 64
0.028816 0.015587 0.00074659 24 64 0 64
0.039534 0.016579 -0.0018734 24 64 0 64
0.24315 0.040188 0.0070429 1 255 0 0
0.1632 0.021532 5.3623e-05 19 0 0 255
0.21733 0.019193 -0.004982 1 255 0 0
0.22497 0.015245 -0.0014516 1 255 0 0
0.075626 0.026231 0.00071862 18 0 255 0
0.182 0.038319 -0.0017292 1 255 0 0
0.067062 0.023027 -0.0016731 24 64 0 64
0.056591 0.031923 -0.0017681 24 64 0 64
0.085347 0.022335 -0.0014755 18 0 255 0
0.026961 0.016691 0.0019611 24 64 0 64
0.14571 0.03275 0.0014966 19 0 0 255
0.063049 0.024921 -0.0017127 24 64 0 64
0.10396 0.021331 -0.0012751 18 0 255 0
0.12272 0.033871 0.0012483 19 0 0 255
0.14963 0.030379 0.0015343 19 0 0 255
0.21855 0.022992 -0.0047102 1 255 0 0
0.029898 0.035492 0.0015288 24 64 0 64
0.18076 0.039689 -0.0037001 1 255 0 0
0.20728 0.03746 -0.0091315 1 255 0 0
0.12257 0.027897 0.001234 19 0 0 255
0.24176 0.021824 0.0086032 1 255 0 0
0.14844 0.020882 -0.00037031 19 0 0 255
0.21554 0.037999 -0.0046015 1 255 0 0
0.16323 0.02574 0.0011907 1 255 0 0
0.10343 0.03468 0.0010398 18 0 255 0
0.24576 0.010766 0.010484 1 255 0 0
0.2148 0.0389 -0.0064603 1 255 0 0
0.12139 0.032698 0.0012314 19 0 0 255
0.041415 0.032917 0.00035991 24 64 0 64
0.073586 0.017665 -0.0016135 18 0 255 0
0.20988 0.030681 -0.0086611 1 255 0 0
0.089079 0.035555 0.00055463 18 0 255 0
0.18252 0.015858 -0.001951 1 255 0 0
0.077612 0.022806 0.00073297 18 0 255 0
0.2457 0.030074 0.0105 1 255 0 0
0.023683 0.029005 0.0025949 24 64 0 64
0.21042 0.028353 -0.007377 1 255 0 0
0.24331 0.044132 0.0077153 1 255 0 0
0.20871 0.041323 -0.0089898 1 255 0 0
0.031232 0.024796 0.0013128 24 64 0 64
0.22361 0.034219 -2.7361e-05 1 255 0 0
0.12211 0.029832 0.001233 19 0 0 255
0.15627 0.027754 -0.00071554 1 255 0 0
0.25522 0.031811 0.01277 1 255 0 0
0.041116 0.01614 -0.0015185 24 64 0 64
0.17474 0.034884 -0.002551 1 255 0 0
0.12062 0.027061 0.0012109 19 0 0 255
0.044238 0.034498 -0.0018971 24 64 0 64
0.19045 0.012651 -0.0069406 1 255 0 0
0.091109 0.029549 0.00089448 18 0 255 0
0.12413 0.032226 0.0012602 19 0 0 255
0.072181 0.029179 -0.0016043 18 0 255 0
0.20589 0.043027 -0.007322 1 255 0 0
0.21346 0.038122 -0.0070997 1 255 0 0
0.12346 0.025199 -0.0010546 19 0 0 255
0.047134 0.028926 -0.0018775 24 64 0 64
0.22507 0.020367 -0.0016129 1 255 0 0
0.22095 0.011243 -0.0013502 1 255 0 0
0.19025 0.016726 -0.0068663 1 255 0 0
0.25431 0.012885 0.012296 1 255 0 0
0.19879 0.042576 -0.007149 1 255 0 0
0.082723 0.031998 0.00080828 18 0 255 0
0.19426 0.011236 -0.0058808 1 255 0 0
0.25386 0.01113 0.014351 1 255 0 0
0.22334 0.043252 -0.0023845 1 255 0 0
0.016763 0.025092 0.0016163 24 64 0 64
0.043948 0.03602 -0.001897 24 64 0 64
0.21146 0.024497 -0.0080832 1 255 0 0
0.18171 0.021063 -0.0040251 1 255 0 0
0.18949 0.026822 -0.0065923 1 255 0 0
0.075021 0.030136 0.00072035 18 0 255 0
0.20491 0.011955 -0.0074869 1 255 0 0
0.18149 0.033508 -0.00157 1 255 0 0
0.18188 0.019968 -0.0017294 1 255 0 0
0.17468 0.037866 -0.0025355 1 255 0 0
0.14892 0.025904 -0.00077591 19 0 0 255
0.19642 0.022276 -0.0089516 1 255 0 0
0.17892 0.033249 -0.0033197 1 255 0 0
0.21619 0.023317 -0.0058341 1 255 0 0
0.12053 0.029166 0.0012144 19 0 0 255
0.20958 0.03761 -0.008056 1 255 0 0
0.20111 0.015848 -0.0098249 1 255 0 0
0.20682 0.016469 -0.0090209 1 255 0 0
0.1654 0.029178 0.00099779 1 255 0 0
0.078011 0.020471 -0.0015594 18 0 255 0
0.20161 0.021961 -0.0098489 1 255 0 0
0.12442 0.022528 -0.0010498 19 0 0 255
0.22354 0.033002 -6.6315e-05 1 255 0 0
0.20133 0.036563 -0.0098036 1 255 0 0
0.17713 0.014151 -0.0030247 1 255 0 0
0.045414 0.020874 0.00037785 24 64 0 64
0.24589 0.03999 0.010353 1 255 0 0
0.1103 0.030578 0.0011059 19 0 0 255
0.15994 0.021388 0.0001262 19 0 0 255
0.017522 0.020787 0.0014599 24 64 0 64
0.034685 0.033168 0.00089797 24 64 0 64
0.19211 0.017856 -0.0074781 1 255 0 0
0.21957 0.025123 -0.0026225 1 255 0 0
0.08794 0.031771 -0.0014272 18 0 255 0
0.055038 0.019219 -0.0018121 24 64 0 64
0.2555 0.032348 0.014797 1 255 0 0
0.052323 0.023143 0.000458 24 64 0 64
0.18003 0.020999 -0.0012367 1 255 0 0
0.18452 0.020709 -0.0026057 1 255 0 0
0.21007 0.03332 -0.0063375 1 255 0 0
0.035342 0.03791 -0.0013048 24 64 0 64
0.11136 0.019238 0.00046999 19 0 0 255
0.25569 0.030328 0.013367 1 255 0 0
0.24455 0.012112 0.0099089 1 255 0 0
0.12649 0.030122 0.0012814 19 0 0 255
0.025467 0.023039 0.002236 24 64 0 64
0.054877 0.016746 -0.00075537 24 64 0 64
0.19261 0.043066 -0.0075934 1 255 0 0
0.051364 0.037208 8.5329e-06 24 64 0 64
0.2207 0.033816 -0.0036642 1 255 0 0
0.10564 0.021356 -0.0012567 19 0 0 255
0.11425 0.034452 -0.00045508 19 0 0 255
0.044134 0.020714 0.00036355 24 64 0 64
0.24483 0.041482 0.0078442 1 255 0 0
0.10032 0.029147 -0.001298 18 0 255 0
0.23728 0.0098564 0.0041773 1 255 0 0
0.22492 0.041818 -0.0016343 1 255 0 0
0.18725 0.024016 -0.0035057 1 255 0 0
0.036602 0.026235 0.0006929 24 64 0 64
0.24074 0.011386 0.0058298 1 255 0 0
0.043451 0.016323 0.00034675 24 64 0 64
0.20727 0.013273 -0.0094118 1 255 0 0
0.25033 0.011513 0.010396 1 255 0 0
0.18196 0.032222 -0.0017293 1 255 0 0
0.042257 0.037607 -0.00020688 24 64 0 64
0.2412 0.043635 0.0061209 1 255 0 0
0.1243 0.028539 0.0012542 19 0 0 255
0.23677 0.010791 0.0061985 1 255 0 0
0.044633 0.031467 0.0003919 24 64 0 64
0.24986 0.023582 0.012468 1 255 0 0
0.068805 0.027574 -0.0016444 18 0 255 0
0.1988 0.041485 -0.0071545 1 255 0 0
0.13645 0.027241 0.0013839 19 0 0 255
0.24755 0.033994 0.010343 1 255 0 0
0.041291 0.029423 0.00035111 24 64 0 64
0.21377 0.012871 -0.007009 1 255 0 0
0.25297 0.043332 0.013998 1 255 0 0
0.21319 0.034784 -0.0063381 1 255 0 0
0.14682 0.020805 0.00088672 19 0 0 255
0.17678 0.018412 -0.00061118 1 255 0 0
0.051028 0.023107 -0.0018475 24 64 0 64
0.08015 0.021381 0.00075761 18 0 255 0
0.22383 0.033991 -0.0021715 1 255 0 0
0.033955 0.037095 -0.0013115 24 64 0 64
0.17527 0.025969 -0.0026565 1 255 0 0
0.10849 0.02912 -0.0012092 18 0 255 0
0.070941 0.024472 -0.0016278 18 0 255 0
0.061015 0.017019 -0.0011245 24 64 0 64
0.094793 0.030133 0.00093589 18 0 255 0
0.2279 0.040417 -0.00021795 1 255 0 0
0.089057 0.018253 0.00010424 18 0 255 0
0.21892 0.028723 -0.0033097 1 255 0 0
0.24444 0.041751 0.0099238 1 255 0 0
0.18743 0.035234 -0.0035429 1 255 0 0
0.20918 0.038994 -0.0066088 1 255 0 0
0.10724 0.019057 0.00029844 19 0 0 255
0.22239 0.043778 -0.00058783 1 255 0 0
0.015286 0.032887 0.0028117 24 64 0 64
0.063927 0.023807 -0.0017056 24 64 0 64
0.04065 0.027517 0.00036915 24 64 0 64
0.20408 0.011141 -0.00756 1 255 0 0
0.071582 0.031867 0.00068654 18 0 255 0
0.20392 0.019967 -0.0075541 1 255 0 0
0.17318 0.033692 -0.0023079 1 255 0 0
0.23336 0.014682 0.0037 1 255 0 0
0.021088 0.035536 0.00079829 24 64 0 64
0.13813 0.032499 0.0014134 19 0 0 255
0.026903 0.024832 -0.00032334 24 64 0 64
0.020726 0.016778 0.0031435 24 64 0 64
0.064553 0.02602 -0.001694 24 64 0 64
0.19903 0.032209 -0.0072166 1 255 0 0
0.039202 0.027101 -0.001827 24 64 0 64
0.23305 0.043468 0.0044924 1 255 0 0
0.19991 0.021269 -0.0073878 1 255 0 0
0.039105 0.020325 0.00046623 24 64 0 64
0.12875 0.022289 0.0012893 19 0 0 255
0.25517 0.042873 0.01277 1 255 0 0
0.12888 0.022974 -0.0010003 19 0 0 255
0.17824 0.038815 -0.0008419 1 255 0 0
0.25216 0.022839 0.013564 1 255 0 0
0.23235 0.032986 0.0041393 1 255 0 0
0.14052 0.021269 -0.00087721 19 0 0 255
0.13323 0.022369 0.0013383 19 0 0 255
0.20031 0.041591 -0.0096897 1 255 0 0
0.12007 0.023892 0.0011982 19 0 0 255
0.080055 0.02941 -0.0015181 18 0 255 0
0.22662 0.040548 -0.00082795 1 255 0 0
0.20858 0.012964 -0.0090857 1 255 0 0
0.20113 0.031876 -0.0074889 1 255 0 0
0.09572 0.023493 0.00093185 18 0 255 0
0.13803 0.022314 0.0013906 19 0 0 255
0.17757 0.012622 -0.00077156 1 255 0 0
0.21248 0.029106 -0.0075865 1 255 0 0
0.037981 0.025086 -0.0017425 24 64 0 64
0.042922 0.027023 -0.0019274 24 64 0 64
0.082308 0.024271 -0.0015045 18 0 255 0
0.23015 0.033524 0.0030883 1 255 0 0
0.093434 0.031012 -0.001369 18 0 255 0
0.17286 0.036454 -0.0022523 1 255 0 0
0.18896 0.029539 -0.0040649 1 255 0 0
0.046301 0.032921 0.00041318 24 64 0 64
0.18481 0.03901 -0.0050178 1 255 0 0
0.091535 0.018369 -0.001406 18 0 255 0
0.24345 0.0097056 0.0080035 1 255 0 0
0.17934 0.016349 -0.0010985 1 255 0 0
0.18573 0.021356 -0.0030056 1 255 0 0
0.21573 0.011792 -0.0038399 1 255 0 0
0.1866 0.010595 -0.0056693 1 255 0 0
0.15248 0.02892 -0.00073079 19 0 0 255
0.026105 0.031434 -0.00017429 24 64 0 64
0.09342 0.029776 0.00092016 18 0 255 0
0.086387 0.027102 0.00083779 18 0 255 0
0.14186 0.02974 0.0014482 19 0 0 255
0.24826 0.010868 0.01168 1 255 0 0
0.053043 0.02122 -0.0018295 24 64 0 64
0.037655 0.01598 0.00023826 24 64 0 64
0.12007 0.033674 -0.0010734 19 0 0 255
0.015573 0.033199 0.0037577 24 64 0 64
0.066012 0.017236 -0.00030482 24 64 0 64
0.21458 0.021286 -0.0066036 1 255 0 0
0.21506 0.031539 -0.0063537 1 255 0 0
0.23769 0.0097094 0.0057053 1 255 0 0
0.10225 0.023062 0.0010021 18 0 255 0
0.20401 0.020431 -0.0098263 1 255 0 0
0.016111 0.022151 0.0040511 24 64 0 64
0.21047 0.010618 -0.0084876 1 255 0 0
0.245 0.02986 0.0087127 1 255 0 0
0.23816 0.013011 0.0046048 1 255 0 0
0.22001 0.02267 -0.0040182 1 255 0 0
0.12982 0.022163 0.0013008 19 0 0 255
0.22664 0.038731 0.00012779 1 255 0 0
0.15553 0.021187 0.0015348 19 0 0 255
0.25598 0.042569 0.013802 1 255 0 0
0.060242 0.021591 -0.0017504 24 64 0 64
0.089561 0.033001 -0.0014069 18 0 255 0
0.21362 0.043496 -0.004775 1 255 0 0
0.13382 0.027465 -0.00093695 19 0 0 255
0.013868 0.028682 0.0038321 24 64 0 64
0.041979 0.017465 0.00033314 24 64 0 64
0.17922 0.042467 -0.0010476 1 255 0 0
0.14308 0.024342 0.0014499 19 0 0 255
0.19397 0.035693 -0.008066 1 255 0 0
0.03779 0.020097 -0.0017382 24 64 0 64
0.09212 0.023582 0.00089279 18 0 255 0
0.022959 0.02165 0.0027201 24 64 0 64
0.24379 0.023295 0.009575 1 255 0 0
0.22669 0.034473 0.00091457 1 255 0 0
0.045993 0.034478 0.00041314 24 64 0 64
0.028417 0.019639 -0.00059091 24 64 0 64
0.17298 0.037374 4.3512e-05 1 255 0 0
0.18451 0.022124 -0.0025981 1 255 0 0
0.061221 0.03117 0.00057211 24 64 0 64
0.088788 0.019337 0.00084742 18 0 255 0
0.24145 0.012109 0.0061718 1 255 0 0
0.20516 0.039382 -0.0096875 1 255 0 0
0.016226 0.02861 0.0040422 24 64 0 64
0.24511 0.023695 0.0079357 1 255 0 0
0.18198 0.024818 -0.0017523 1 255 0 0
0.028958 0.023493 0.0016399 24 64 0 64
0.22808 0.020812 0.0020727 1 255 0 0
0.18289 0.014074 -0.0044337 1 255 0 0
0.20567 0.044161 -0.0093972 1 255 0 0
0.24927 0.013206 0.012165 1 255 0 0
0.17431 0.020926 -0.0025118 1 255 0 0
0.21026 0.039664 -0.0085014 1 255 0 0
0.069443 0.018407 0.00063455 24 64 0 64
0.043092 0.021697 -0.0019368 24 64 0 64
0.18585 0.037093 -0.0053671 1 255 0 0
0.071548 0.031771 -0.0016056 18 0 255 0
0.22659 0.015138 0.00058779 1 255 0 0
0.23061 0.041883 0.0010731 1 255 0 0
0.078854 0.035046 -0.0015191 18 0 255 0
0.092651 0.022527 -0.0013956 18 0 255 0
0.083902 0.021039 0.00079778 18 0 255 0
0.21844 0.021968 -0.0047668 1 255 0 0
0.12017 0.029264 -0.0010818 19 0 0 255
0.14611 0.022576 -0.00081359 19 0 0 255
0.18238 0.035819 -0.0042189 1 255 0 0
0.19461 0.04133 -0.0059515 1 255 0 0
0.25204 0.040404 0.01142 1 255 0 0
0.24946 0.030048 0.012263 1 255 0 0
0.22404 0.029494 0.00016322 1 255 0 0
0.18096 0.023379 -0.0037769 1 255 0 0
0.027534 0.032742 0.0018975 24 64 0 64
0.11327 0.021514 -0.0011734 19 0 0 255
0.12274 0.028962 0.001238 19 0 0 255
0.044413 0.018976 0.0003629 24 64 0 64
0.19011 0.039754 -0.0067725 1 255 0 0
0.10081 0.018771 0.00073264 18 0 255 0
0.21462 0.014961 -0.0043603 1 255 0 0
0.23083 0.021597 0.0011358 1 255 0 0
0.21422 0.02397 -0.0067726 1 255 0 0
0.18207 0.043245 -0.0017453 1 255 0 0
0.22841 0.033032 0.0022561 1 255 0 0
0.14089 0.030156 -0.00085428 19 0 0 255
0.19973 0.012603 -0.0096928 1 255 0 0
0.17927 0.014934 -0.001087 1 255 0 0
0.21784 0.023881 -0.0050469 1 255 0 0
0.085487 0.034239 -0.0014486 18 0 255 0
0.12034 0.021298 0.0011956 19 0 0 255
0.21288 0.033374 -0.0073895 1 255 0 0
0.077421 0.03028 -0.0015449 18 0 255 0
0.19752 0.014698 -0.0069493 1 255 0 0
0.029443 0.033724 -0.00071747 24 64 0 64
0.1983 0.036331 -0.0093884 1 255 0 0
0.1955 0.041927 -0.0086359 1 255 0 0
0.021175 0.035766 0.003096 24 64 0 64
0.25296 0.021261 0.013945 1 255 0 0
0.21995 0.010675 -0.0040732 1 255 0 0
0.16722 0.031013 0.00082166 1 255 0 0
0.16692 0.02811 -0.0014773 1 255 0 0
0.18343 0.0099929 -0.0042616 1 255 0 0
0.017595 0.024819 0.0037683 24 64 0 64
0.054942 0.025674 0.00049195 24 64 0 64
0.029671 0.030347 0.0015508 24 64 0 64
0.18207 0.012022 -0.0041659 1 255 0 0
0.1743 0.033102 -0.0024852 1 255 0 0
0.1043 0.026556 0.0010319 18 0 255 0
0.23986 0.043329 0.0077423 1 255 0 0
0.20868 0.02266 -0.0090383 1 255 0 0
0.23018 0.019467 0.0011343 1 255 0 0
0.084241 0.023402 -0.0014853 18 0 255 0
0.25072 0.032204 0.012897 1 255 0 0
0.22672 0.022719 -0.00082136 1 255 0 0
0.13338 0.033613 -0.00083069 19 0 0 255
0.20581 0.032362 -0.0073581 1 255 0 0
0.1698 0.020901 -0.0015104 19 0 0 255
0.12393 0.030893 0.0012551 19 0 0 255
0.18277 0.015828 -0.0043885 1 255 0 0
0.042381 0.027125 0.0003581 24 64 0 64
0.24661 0.011657 0.010892 1 255 0 0
0.061499 0.022514 -0.0017347 24 64 0 64
0.10157 0.030677 -0.0012811 18 0 255 0
0.11722 0.030816 -0.0011105 19 0 0 255
0.18514 0.027306 -0.0027977 1 255 0 0
0.085155 0.020864 -0.0014808 18 0 255 0
0.040738 0.027583 -0.0019376 24 64 0 64
0.25378 0.030239 0.013605 1 255 0 0
0.1805 0.027023 -0.0013259 1 255 0 0
0.086005 0.018124 -0.0011116 18 0 255 0
0.21472 0.022915 -0.0065349 1 255 0 0
0.15727 0.026166 0.0015367 19 0 0 255
0.05785 0.036842 0.00054745 24 64 0 64
0.20391 0.026019 -0.009514 1 255 0 0
0.20178 0.031005 -0.0098304 1 255 0 0
0.03886 0.029715 0.00050388 24 64 0 64
0.18685 0.011623 -0.0057481 1 255 0 0
0.061674 0.018744 0.00055057 24 64 0 64
0.1573 0.021593 -0.00077387 19 0 0 255
0.055167 0.018502 0.00047912 24 64 0 64
0.064457 0.017459 0.00057817 24 64 0 64
0.12358 0.021013 0.0012302 19 0 0 255
0.18993 0.021576 -0.0044035 1 255 0 0
0.114 0.022831 -0.0011626 19 0 0 255
0.13167 0.033 0.001344 19 0 0 255
0.17602 0.028974 -0.0027872 1 255 0 0
0.014504 0.022914 0.0020504 24 64 0 64
0.072985 0.035113 -0.0015829 18 0 255 0
0.20468 0.037283 -0.0092311 1 255 0 0
0.22006 0.043075 -0.0017019 1 255 0 0
0.14558 0.021051 -0.00082263 19 0 0 255
0.10369 0.025503 0.001023 18 0 255 0
0.22106 0.031591 -0.0012506 1 255 0 0
0.071093 0.036343 0.00037792 18 0 255 0
0.20398 0.024347 -0.0075398 1 255 0 0
0.20582 0.016537 -0.0082081 1 255 0 0
0.13238 0.031674 0.0013489 19 0 0 255
0.18629 0.035748 -0.0055146 1 255 0 0
0.22878 0.044143 0.0015174 1 255 0 0
0.17309 0.02186 -0.0023187 1 255 0 0
0.19498 0.042474 -0.0060914 1 255 0 0
0.11335 0.031489 -0.0011512 19 0 0 255
0.023343 0.031059 0.00035103 24 64 0 64
0.19409 0.042515 -0.0080965 1 255 0 0
0.086253 0.024831 0.0008315 18 0 255 0
0.21281 0.044155 -0.005514 1 255 0 0
0.24186 0.032494 0.0086709 1 255 0 0
0.050376 0.034636 -0.00183 24 64 0 64
0.2259 0.033402 0.001059 1 255 0 0
0.24444 0.024 0.008952 1 255 0 0
0.032779 0.038017 0.0011384 24 64 0 64
0.18602 0.031774 -0.0030825 1 255 0 0
0.14463 0.030278 -0.00081326 19 0 0 255
0.10653 0.024362 0.0010515 19 0 0 255
0.17997 0.036487 -0.0011921 1 255 0 0
0.20384 0.039068 -0.0098008 1 255 0 0
0.067042 0.026351 0.0006253 24 64 0 64
0.23199 0.029297 0.0018601 1 255 0 0
0.016698 0.028625 0.0016363 24 64 0 64
0.18958 0.033791 -0.0042634 1 255 0 0
0.067704 0.033106 0.00064691 18 0 255 0
0.11937 0.02214 0.0011868 19 0 0 255
0.10937 0.026232 -0.0012057 19 0 0 255
0.12165 0.027365 0.0012228 19 0 0 255
0.034915 0.037928 -5.5661e-05 24 64 0 64
0.071369 0.02093 -0.0016307 18 0 255 0
0.13019 0.022532 -0.00098693 19 0 0 255
0.13386 0.020237 -0.00059957 19 0 0 255
0.12055 0.019646 0.00016999 19 0 0 255
0.1921 0.036763 -0.005093 1 255 0 0
0.033579 0.016149 0.00099584 24 64 0 64
0.014787 0.0291 0.0043227 24 64 0 64
0.20238 0.014492 -0.0075759 1 255 0 0
0.047849 0.026989 0.00041742 24 64 0 64
0.2407 0.012881 0.005814 1 255 0 0
0.021647 0.036893 0.0030067 24 64 0 64
0.16035 0.032432 0.00075374 19 0 0 255
0.17557 0.020628 -0.0027231 1 255 0 0
0.043397 0.017924 -0.0019416 24 64 0 64
0.20628 0.0097334 -0.0085325 1 255 0 0
0.18188 0.029222 -0.0040665 1 255 0 0
0.065623 0.022124 0.00060083 24 64 0 64
0.1852 0.041488 -0.0051399 1 255 0 0
0.22299 0.015001 -0.00036545 1 255 0 0
0.19343 0.028891 -0.0078955 1 255 0 0
0.042549 0.016201 -0.00087297 24 64 0 64
0.028063 0.02817 -0.0005131 24 64 0 64
0.21491 0.023127 -0.0042053 1 255 0 0
0.22161 0.031261 -0.0032339 1 255 0 0
0.045915 0.016351 -0.0011147 24 64 0 64
0.25212 0.031253 0.011294 1 255 0 0
0.16515 0.025783 0.0010155 1 255 0 0
0.21401 0.022814 -0.0046338 1 255 0 0
0.21449 0.042778 -0.0066009 1 255 0 0
0.14306 0.031815 -0.00082715 19 0 0 255
0.16831 0.025803 -0.0016459 1 255 0 0
0.054023 0.024135 0.00047865 24 64 0 64
0.23937 0.014036 0.005181 1 255 0 0
0.070618 0.033895 -0.0016112 18 0 255 0
0.23809 0.034211 0.0060938 1 255 0 0
0.20526 0.028127 -0.0094123 1 255 0 0
0.030903 0.018508 -0.00096126 24 64 0 64
0.21178 0.034663 -0.0079082 1 255 0 0
0.17658 0.032054 -0.0028845 1 255 0 0
0.15 0.032885 0.00046351 19 0 0 255
0.22596 0.024835 -3.1958e-06 1 255 0 0
0.19602 0.029337 -0.0064954 1 255 0 0
0.062368 0.034861 -0.001699 24 64 0 64
0.07894 0.022192 0.00074615 18 0 255 0
0.036512 0.015936 -0.0012917 24 64 0 64
0.18186 0.017503 -0.0017267 1 255 0 0
0.076777 0.026599 0.00073196 18 0 255 0
0.18366 0.027184 -0.0023068 1 255 0 0
0.019625 0.01878 0.0033616 24 64 0 64
0.23136 0.013185 0.0036233 1 255 0 0
0.23482 0.013623 0.005271 1 255 0 0
0.22491 0.031745 -0.0016643 1 255 0 0
0.23691 0.031325 0.0040492 1 255 0 0
0.1505 0.020974 -0.00066532 19 0 0 255
0.035066 0.034548 -0.0014442 24 64 0 64
0.12101 0.031141 0.0012239 19 0 0 255
0.048374 0.024748 0.00041837 24 64 0 64
0.19499 0.010667 -0.0085064 1 255 0 0
0.12675 0.02275 -0.001024 19 0 0 255
0.18535 0.026153 -0.0028697 1 255 0 0
0.24281 0.039792 0.0080459 1 255 0 0
0.019231 0.016944 0.001223 24 64 0 64
0.19672 0.044155 -0.0071859 1 255 0 0
0.063153 0.026862 -0.0017075 24 64 0 64
0.18506 0.035507 -0.0027547 1 255 0 0
0.14564 0.028504 -0.00080609 19 0 0 255
0.050198 0.021393 0.00043111 24 64 0 64
0.20353 0.024086 -0.0098524 1 255 0 0
0.080338 0.027865 -0.0015183 18 0 255 0
0.089631 0.033952 0.00088775 18 0 255 0
0.21055 0.019045 -0.0071643 1 255 0 0
0.16416 0.027477 -0.0012025 19 0 0 255
0.049835 0.031071 0.00044776 24 64 0 64
0.17026 0.033299 -0.00055842 1 255 0 0
0.19439 0.038583 -0.008221 1 255 0 0
0.13551 0.03352 0.00082258 19 0 0 255
0.22713 0.014565 0.0016075 1 255 0 0
0.11897 0.019577 -0.00011231 19 0 0 255
0.12176 0.021528 0.0012116 19 0 0 255
0.06048 0.024471 -0.0017417 24 64 0 64
0.20932 0.030362 -0.0065895 1 255 0 0
0.14582 0.021092 0.0014729 19 0 0 255
0.11683 0.020052 0.0011547 19 0 0 255
0.24709 0.0097001 0.010929 1 255 0 0
0.12541 0.031803 0.0012732 19 0 0 255
0.024057 0.037553 0.00022589 24 64 0 64
0.24163 0.021276 0.0062771 1 255 0 0
0.035529 0.030137 0.00080488 24 64 0 64
0.197 0.012908 -0.0068048 1 255 0 0
0.22341 0.02495 -0.0023568 1 255 0 0
0.20219 0.025939 -0.0098429 1 255 0 0
0.13467 0.027293 0.0013646 19 0 0 255
0.23208 0.044139 0.0034168 1 255 0 0
0.13563 0.028816 -0.00091434 19 0 0 255
0.19115 0.026031 -0.004799 1 255 0 0
0.044312 0.028755 -0.0019085 24 64 0 64
0.16967 0.029596 0.00051671 1 255 0 0
0.21971 0.029178 -0.001902 1 255 0 0
0.12884 0.032855 -0.00097964 19 0 0 255
0.23056 0.031088 0.0032779 1 255 0 0
0.19155 0.024531 -0.0049374 1 255 0 0
0.22649 0.024811 -0.00088901 1 255 0 0
0.037996 0.022508 -0.001749 24 64 0 64
0.18901 0.022536 -0.0064431 1 255 0 0
0.086154 0.018125 7.0966e-05 18 0 255 0
0.10014 0.024488 0.00098212 18 0 255 0
0.025897 0.016006 -0.00017136 24 64 0 64
0.19225 0.023365 -0.0051724 1 255 0 0
0.13189 0.020148 2.9694e-05 19 0 0 255
0.10979 0.019167 0.00073525 19 0 0 255
0.043859 0.024513 0.00036865 24 64 0 64
0.23008 0.042768 0.0030754 1 255 0 0
0.23605 0.034257 0.0054576 1 255 0 0
0.091876 0.018671 0.00087967 18 0 255 0
0.20325 0.013148 -0.007583 1 255 0 0
0.056538 0.021593 0.00050065 24 64 0 64
0.10596 0.026391 0.0010497 19 0 0 255
0.091875 0.034877 0.00091419 18 0 255 0
0.21217 0.012295 -0.0055366 1 255 0 0
0.18313 0.018476 -0.0045013 1 255 0 0
0.027118 0.018448 0.0019382 24 64 0 64
0.2058 0.019329 -0.0073889 1 255 0 0
0.19678 0.035236 -0.0090262 1 255 0 0
0.12447 0.033933 0.0012675 19 0 0 255
0.1996 0.024561 -0.0073392 1 255 0 0
0.18832 0.012172 -0.0038862 1 255 0 0
0.1031 0.020517 -0.0012862 18 0 255 0
0.19019 0.031582 -0.0044688 1 255 0 0
0.123 0.023853 0.00123 19 0 0 255
0.14327 0.033142 0.0014707 19 0 0 255
0.14668 0.032086 -0.00078708 19 0 0 255
0.10191 0.029286 -0.0012804 18 0 255 0
0.1804 0.013938 -0.0013305 1 255 0 0
0.23547 0.021963 0.0056003 1 255 0 0
0.24327 0.014013 0.0071892 1 255 0 0
0.083989 0.022488 0.00080182 18 0 255 0
0.19001 0.02579 -0.0067668 1 255 0 0
0.045961 0.031888 -0.0018839 24 64 0 64
0.18291 0.021652 -0.0044248 1 255 0 0
0.16516 0.032221 0.00042309 1 255 0 0
0.18599 0.031502 -0.0054243 1 255 0 0
0.18569 0.014482 -0.0030082 1 255 0 0
0.10568 0.019422 0.0010317 19 0 0 255
0.071499 0.022783 0.00066629 18 0 255 0
0.18068 0.03497 -0.0013476 1 255 0 0
0.053748 0.031981 0.00049237 24 64 0 64
0.061788 0.028814 0.00057327 24 64 0 64
0.17785 0.036105 -0.00077375 1 255 0 0
0.092717 0.018417 -0.00022736 18 0 255 0
0.18937 0.02812 -0.0065505 1 255 0 0
0.087752 0.024036 -0.0014457 18 0 255 0
0.15529 0.025306 0.0015851 19 0 0 255
0.21142 0.011066 -0.0081313 1 255 0 0
0.082308 0.017953 0.00056391 18 0 255 0
0.20137 0.035421 -0.0098088 1 255 0 0
0.145 0.024034 0.0014703 19 0 0 255
0.018344 0.018698 0.0012959 24 64 0 64
0.06512 0.035959 0.00062482 18 0 255 0
0.080919 0.024511 -0.0015191 18 0 255 0
0.19611 0.040816 -0.0064975 1 255 0 0
0.10345 0.022738 -0.0012776 18 0 255 0
0.051999 0.033212 -0.0018154 24 64 0 64
0.24512 0.022401 0.0079421 1 255 0 0
0.042798 0.021537 0.00035074 24 64 0 64
0.21785 0.039173 -0.0050081 1 255 0 0
0.23221 0.023553 0.0017939 1 255 0 0
0.039829 0.020791 -0.0018859 24 64 0 64
0.10158 0.026277 0.0010016 18 0 255 0
0.056217 0.034728 0.00052514 24 64 0 64
0.099893 0.034975 -0.0012903 18 0 255 0
0.037553 0.034743 -0.0016843 24 64 0 64
0.016278 0.020189 0.0040144 24 64 0 64
0.13616 0.022379 0.0013704 19 0 0 255
0.22353 0.042274 -4.9848e-05 1 255 0 0
0.18893 0.013914 -0.004086 1 255 0 0
0.038 0.02274 0.00055168 24 64 0 64
0.072864 0.028982 0.00069438 18 0 255 0
0.23192 0.011835 0.0038831 1 255 0 0
0.039621 0.03127 -0.0018486 24 64 0 64
0.15093 0.030527 -0.00074425 19 0 0 255
0.1191 0.02343 0.0011866 19 0 0 255
0.11377 0.034203 0.0011514 19 0 0 255
0.15791 0.032539 -0.00058727 19 0 0 255
0.081099 0.033615 -0.0014977 18 0 255 0
0.18569 0.030106 -0.0029766 1 255 0 0
0.11224 0.032364 0.0011308 19 0 0 255
0.18077 0.020584 -0.0037421 1 255 0 0
