ply
format ascii 1.0
comment author Paulo Abelha (p.abelha at abdn ac uk)
element vertex 728
property float x
property float y
property float z
property int segm
property float nx
property float ny
property float nz
property uchar red
property uchar green
property uchar blue
end_header
-0.089787 -0.009678 0.0038692 1 -0.0025701 -0.0015654 -1 255 0 0
-0.085317 -0.0096881 -0.004369 1 0.002557 0.001566 1 255 0 0
-0.086072 -0.0058281 -0.0049846 1 0.0025701 0.0015454 1 255 0 0
-0.087722 -0.008058 0.0051745 1 -0.0045121 -0.1872 -0.98231 255 0 0
-0.088997 -0.009678 0.0031211 1 -0.15085 0.98846 0.013502 255 0 0
-0.090221 -0.009678 0.0028084 1 0.039981 -0.65488 -0.75469 255 0 0
-0.084788 -0.0096881 -0.0026634 1 -0.03291 0.19778 -0.97969 255 0 0
-0.084461 -0.006468 0.0051637 1 -0.0025572 -0.001562 -1 255 0 0
-0.080947 -0.0061881 -0.0049972 1 -0.0025553 -0.0015612 -1 255 0 0
-0.081816 -0.0096881 -0.0031754 1 0.0025559 0.0015635 1 255 0 0
-0.081241 -0.0074181 -0.0049945 1 0.049423 0.99878 -0.0023089 255 0 0
-0.083577 -0.009678 0.0028366 1 2.5306e-07 1 -8.303e-06 255 0 0
-0.08155 -0.007578 0.005158 1 0.28994 -0.26688 0.91908 255 0 0
-0.081062 -0.006068 0.0051544 1 0.0025569 0.0015542 1 255 0 0
-0.082925 -0.0086981 -0.0049882 1 -0.0025741 -0.0015596 -1 255 0 0
-0.083717 -0.0096881 -0.0030796 1 -0.0025556 -0.0015625 -1 255 0 0
-0.084731 -0.0089781 -0.0049831 1 -0.0025541 -0.0016088 -1 255 0 0
-0.084082 -0.0053381 -0.0049905 1 0.0025345 0.0015883 1 255 0 0
-0.082143 -0.004988 0.0051555 1 0.063352 -0.41711 0.90664 255 0 0
-0.080787 -0.0096981 -0.0036722 1 0.0093389 -0.99992 0.009026 255 0 0
-0.082983 -0.005808 0.0051589 1 -7.113e-05 0.99995 -0.0097305 255 0 0
-0.080603 -0.009398 0.0051585 1 0.0025627 0.001561 1 255 0 0
-0.08189 -0.0094881 -0.0049896 1 -0.0025543 -0.0015808 -1 255 0 0
-0.08113 -0.0047981 -0.0049989 1 0.0025618 0.0015486 1 255 0 0
-0.081666 -0.009688 -0.00099553 1 -0.0025714 -0.001556 -1 255 0 0
-0.082819 -0.0096881 -0.0041439 1 -2.5306e-07 -1 8.303e-06 255 0 0
-0.080349 -0.0096981 -0.0047238 1 0.25959 0.063669 0.96362 255 0 0
-0.082769 -0.008138 0.005162 1 0.0025596 0.0015535 1 255 0 0
-0.085135 -0.009688 0.00078437 1 -0.0025598 -0.0015657 -1 255 0 0
-0.084171 -0.0074781 -0.0049869 1 -0.0025581 -0.0015463 -1 255 0 0
-0.080345 -0.009688 0.0018488 1 0.0025422 0.0015897 1 255 0 0
-0.081945 -0.009678 0.0036568 1 0.26574 0.02677 -0.96367 255 0 0
-0.083652 -0.0096981 -0.0049827 1 0.0025773 0.001574 1 255 0 0
-0.084951 -0.005278 0.0051631 1 -0.0025641 -0.0015615 -1 255 0 0
-0.082774 -0.0068481 -0.0049915 1 0.064045 -0.76128 -0.64524 255 0 0
-0.083486 -0.009688 -0.0019318 1 0.030572 -0.51172 -0.85862 255 0 0
-0.080848 -0.004808 0.0051519 1 -0.0025292 -0.001563 -1 255 0 0
-0.084123 -0.007528 0.0051645 1 -0.00038034 -1 0.0031067 255 0 0
-0.08261 -0.0049981 -0.0049948 1 0.0019391 0.99999 -0.0049195 255 0 0
-0.080874 -0.009688 -0.00022953 1 -0.0025544 -0.0015595 -1 255 0 0
-0.081832 -0.0083381 -0.0049916 1 0.00256 0.0015503 1 255 0 0
-0.083769 -0.009678 0.0043791 1 -0.0025626 -0.0015726 -1 255 0 0
-0.081441 -0.009688 -0.0021063 1 0.32578 0.077519 -0.94226 255 0 0
-0.081236 -0.009688 0.0010529 1 0.00256 0.0015509 1 255 0 0
-0.085017 -0.009688 -0.0016062 1 -0.0025594 -0.0015599 -1 255 0 0
-0.080572 -0.009678 0.003624 1 0.068115 -0.99767 0.0025916 255 0 0
-0.083351 -0.009688 0.0010359 1 -0.0025646 -0.0015526 -1 255 0 0
-0.084509 -0.009488 0.0051686 1 0.0025597 0.0015634 1 255 0 0
-0.080481 -0.0084581 -0.0049948 1 0.0025589 0.0015674 1 255 0 0
-0.082109 -0.009688 0.00030537 1 0.0025565 0.0015655 1 255 0 0
-0.083714 -0.008748 0.0051653 1 -0.98723 -0.15709 0.02633 255 0 0
-0.084637 -0.009678 0.0025098 1 -0.0025622 -0.0015508 -1 255 0 0
-0.081914 -0.009678 0.002516 1 0.002543 0.0015461 1 255 0 0
-0.082589 -0.006818 0.0051595 1 0.0025647 0.0015647 1 255 0 0
-0.084812 -0.0061781 -0.0049873 1 -2.5306e-07 -1 8.303e-06 255 0 0
-0.082956 -0.009688 -0.00042463 1 0.0025281 0.001524 1 255 0 0
-0.082445 -0.009358 0.0051631 1 0.0025754 0.0015587 1 255 0 0
-0.084604 -0.009688 -0.00056463 1 0.048809 0.99881 -0.0013866 255 0 0
-0.082369 -0.009688 0.0014842 1 0.00034583 0.90901 0.41676 255 0 0
-0.084202 -0.0096881 -0.004054 1 0.080101 -0.99582 -0.043802 255 0 0
-0.0765 -0.009688 0.002098 1 -0.64687 0.75814 0.082302 255 0 0
-0.076447 -0.0096981 -0.0029417 1 0.00254 0.001555 1 255 0 0
-0.077453 -0.008868 0.0051495 1 -0.0025546 -0.0015571 -1 255 0 0
-0.076786 -0.0096981 -0.004783 1 2.5306e-07 1 -8.303e-06 255 0 0
-0.077851 -0.0061381 -0.0050052 1 -0.0025521 -0.001553 -1 255 0 0
-0.075579 -0.009688 0.0027768 1 -0.0028433 0.022822 0.99974 255 0 0
-0.078304 -0.0074981 -0.0050019 1 0.0025553 0.0015755 1 255 0 0
-0.07915 -0.0096981 -0.0037838 1 0.0025758 0.0015576 1 255 0 0
-0.079954 -0.009688 0.00060647 1 0.0067191 -0.99996 -0.0055709 255 0 0
-0.075502 -0.009688 -0.0015224 1 0.0025439 0.0015413 1 255 0 0
-0.07938 -0.0048281 -0.0050033 1 -0.94982 -0.31019 -0.040358 255 0 0
-0.075418 -0.0096981 -0.003579 1 0.0025361 0.0015838 1 255 0 0
-0.078317 -0.009688 0.0031067 1 -0.002557 -0.0015614 -1 255 0 0
-0.077658 -0.0096981 -0.0036265 1 -0.014248 -0.046749 -0.99881 255 0 0
-0.076909 -0.0070881 -0.0050061 1 0.0025463 0.0015563 1 255 0 0
-0.079104 -0.009688 -0.0022605 1 0.0025714 0.0015576 1 255 0 0
-0.079261 -0.0096981 -0.0049907 1 -0.0025678 -0.0015466 -1 255 0 0
-0.078995 -0.0060881 -0.0050023 1 0.037078 -0.016087 -0.99918 255 0 0
-0.076715 -0.0049181 -0.00501 1 0.002542 0.0015373 1 255 0 0
-0.0801 -0.007328 0.0051539 1 -2.5306e-07 -1 8.303e-06 255 0 0
-0.075955 -0.0089481 -0.0050056 1 0.0025592 0.0015643 1 255 0 0
-0.076111 -0.0058581 -0.00501 1 0.002554 0.0015573 1 255 0 0
-0.079148 -0.006068 0.0051495 1 -0.0025399 -0.0015535 -1 255 0 0
-0.075851 -0.009688 -0.00048143 1 0.0025596 0.00157 1 255 0 0
-0.076804 -0.007628 0.0051459 1 -0.0025437 -0.0015431 -1 255 0 0
-0.075674 -0.0077281 -0.0050082 1 -0.0025583 -0.0015591 -1 255 0 0
-0.080237 -0.009688 -0.0016993 1 0.0025499 0.0015484 1 255 0 0
-0.075523 -0.007978 0.0051432 1 0.0025609 0.0015712 1 255 0 0
-0.077396 -0.0083481 -0.0050029 1 -0.0025559 -0.001561 -1 255 0 0
-0.078893 -0.008338 0.0051524 1 0 0 0 255 0 0
-0.077321 -0.005378 0.0051438 1 0.0025556 0.0015616 1 255 0 0
-0.078245 -0.009688 4.657e-05 1 -0.0025642 -0.0015563 -1 255 0 0
-0.079095 -0.0085281 -0.0049982 1 0.0025514 0.0015564 1 255 0 0
-0.076999 -0.009688 0.0035437 1 0.0025516 0.001559 1 255 0 0
-0.078019 -0.0096881 -0.0026079 1 -0.96406 -0.13274 -0.23016 255 0 0
-0.080089 -0.0071181 -0.0049979 1 0.002559 0.0015559 1 255 0 0
-0.0781 -0.0093981 -0.0049994 1 -0.0094348 -0.85889 0.51208 255 0 0
-0.078122 -0.007048 0.0051484 1 0.0025713 0.0015534 1 255 0 0
-0.078524 -0.009688 0.0016757 1 -0.0025499 -0.0015573 -1 255 0 0
-0.079172 -0.009678 0.0051214 1 -0.98839 -0.15194 0.0031129 255 0 0
-0.076497 -0.009688 0.00098467 1 -0.0025712 -0.0015834 -1 255 0 0
-0.079555 -0.009688 -0.00051433 1 0.0025406 0.0015643 1 255 0 0
-0.080057 -0.0096881 -0.0027894 1 -0.0082464 0.51886 0.85482 255 0 0
-0.076089 -0.006008 0.0051416 1 0.046772 0.9989 -0.001881 255 0 0
-0.0779 -0.009688 -0.0012872 1 -0.0025615 -0.0015562 -1 255 0 0
-0.078597 -0.005108 0.0051466 1 -0.0025562 -0.0015605 -1 255 0 0
-0.076948 -0.009688 -2.033e-05 1 0.014804 0.73697 -0.67576 255 0 0
-0.079341 -0.009678 0.0035487 1 -0.0065026 -0.021181 0.99975 255 0 0
-0.076219 -0.008818 0.0051463 1 -0.0025518 -0.0015602 -1 255 0 0
-0.078002 -0.009678 0.0044034 1 0.002554 0.0015661 1 255 0 0
-0.078179 -0.0050781 -0.005006 1 0.0025412 0.0015706 1 255 0 0
-0.07607 -0.009678 0.0043627 1 -0.0025696 -0.0015615 -1 255 0 0
-0.07658 -0.009688 -0.0018142 1 0.0025514 0.001571 1 255 0 0
-0.074832 -0.009688 0.0036349 1 0.0025449 0.0015688 1 255 0 0
-0.072131 -0.009688 0.0021749 1 0.0025542 0.0015538 1 255 0 0
-0.070829 -0.006768 0.0051293 1 0.018163 0.99982 0.0057411 255 0 0
-0.07131 -0.0095781 -0.0050165 1 0.048485 0.99882 -0.0030314 255 0 0
-0.071136 -0.008188 0.0051323 1 -0.0025542 -0.0015638 -1 255 0 0
-0.072044 -0.0096981 -0.0037977 1 -0.51553 0.85678 0.012159 255 0 0
-0.075091 -0.009678 0.0049698 1 0.037963 -0.56113 -0.82686 255 0 0
-0.071804 -0.0056581 -0.0050214 1 0.0025666 0.0015683 1 255 0 0
-0.072843 -0.0077081 -0.0050155 1 0 0 0 255 0 0
-0.074877 -0.0096981 -0.0049207 1 0.0025574 0.0015453 1 255 0 0
-0.070685 -0.009688 0.0049487 1 0.0025383 0.0015701 1 255 0 0
-0.07334 -0.009688 -0.00097853 1 -0.0025559 -0.0015633 -1 255 0 0
-0.072073 -0.009688 0.0039452 1 0.0025553 0.0015683 1 255 0 0
-0.070954 -0.0070881 -0.0050213 1 0.01509 -0.98179 0.18936 255 0 0
-0.070977 -0.009698 -0.0013277 1 -0.0025714 -0.0015697 -1 255 0 0
-0.070924 -0.0096981 -0.0039738 1 0.001341 0.99999 -0.0036026 255 0 0
-0.073262 -0.009688 0.0022258 1 -0.02579 -0.65898 -0.75173 255 0 0
-0.074955 -0.0050681 -0.0050142 1 0.0025522 0.0015574 1 255 0 0
-0.07365 -0.0048381 -0.0050179 1 0.0025614 0.0015633 1 255 0 0
-0.070565 -0.009688 0.0018078 1 -0.0006521 1 -0.0025897 255 0 0
-0.074759 -0.009688 -0.00073843 1 0.0025639 0.0015568 1 255 0 0
-0.074607 -0.0082881 -0.0050101 1 -0.28668 -0.95803 0.00057873 255 0 0
-0.07468 -0.009688 0.0012864 1 0.11232 -0.96546 -0.23509 255 0 0
-0.07276 -0.006388 0.0051337 1 -0.23974 0.97084 0.0002244 255 0 0
-0.071821 -0.005748 0.0051303 1 0.09823 -0.99516 -0.00047967 255 0 0
-0.073103 -0.005058 0.0051325 1 -0.0025594 -0.0015676 -1 255 0 0
-0.073552 -0.009688 0.0032877 1 -0.0025571 -0.0015577 -1 255 0 0
-0.073527 -0.0061581 -0.0050162 1 0.0025692 0.0015811 1 255 0 0
-0.074103 -0.0096981 -0.0041517 1 -0.002359 -0.99999 0.0036095 255 0 0
-0.073059 -0.009218 0.0051388 1 0.025749 0.99026 0.13683 255 0 0
-0.070804 -0.009688 0.0034243 1 0.066212 -0.99781 0.00095266 255 0 0
-0.07443 -0.005318 0.0051363 1 0.0025677 0.0015841 1 255 0 0
-0.075151 -0.0064281 -0.0050116 1 -0.0025675 -0.0015665 -1 255 0 0
-0.074769 -0.006388 0.0051388 1 -0.0025735 -0.0015423 -1 255 0 0
-0.073449 -0.0096981 -0.0032761 1 0.0025678 0.0015599 1 255 0 0
-0.071429 -0.009688 0.00061617 1 -0.002325 -0.0039712 -0.99999 255 0 0
-0.074023 -0.008548 0.0051403 1 0.055795 0.99784 -0.034823 255 0 0
-0.072475 -0.0096981 -0.002655 1 -0.0025526 -0.0015624 -1 255 0 0
-0.073931 -0.009698 -0.0020027 1 0.0025577 0.0015501 1 255 0 0
-0.071852 -0.009688 -0.00055863 1 0.13584 -0.99073 -0.000142 255 0 0
-0.073682 -0.007308 0.0051375 1 0.34457 0.06806 -0.93629 255 0 0
-0.072763 -0.009688 0.00052367 1 0.30594 -0.68222 -0.66406 255 0 0
-0.072503 -0.0096081 -0.0050134 1 0.032547 0.81035 0.58504 255 0 0
-0.070937 -0.0096981 -0.0027203 1 0.0025401 0.0015286 1 255 0 0
-0.071493 -0.0082581 -0.0050181 1 -0.0025552 -0.0015585 -1 255 0 0
-0.072229 -0.008088 0.005135 1 -0.0025482 -0.0015753 -1 255 0 0
-0.073529 -0.0089381 -0.0050118 1 -0.047512 -0.011718 -0.9988 255 0 0
-0.071061 -0.0048181 -0.0050246 1 0.097243 -0.99526 0.001287 255 0 0
-0.070681 -0.009688 -0.00019253 1 0.036501 0.14978 0.98805 255 0 0
-0.070599 -0.0060481 -0.0050238 1 2.5306e-07 1 -8.303e-06 255 0 0
-0.074499 -0.009688 0.0024867 1 -0.027357 0.80317 0.59511 255 0 0
-0.073854 -0.009688 0.00013577 1 0.04698 0.99889 -0.0025426 255 0 0
-0.074009 -0.009688 0.0044533 1 0.031485 0.99889 -0.03498 255 0 0
-0.071932 -0.009688 0.0051125 1 -0.11357 0.99349 -0.0085587 255 0 0
-0.065562 -0.009688 0.0049305 1 -0.0025565 -0.0015551 -1 255 0 0
-0.067701 -0.009698 -0.0011627 1 -0.0025574 -0.0015643 -1 255 0 0
-0.068852 -0.006618 0.005124 1 -0.0025434 -0.0015515 -1 255 0 0
-0.067682 -0.009688 0.0015087 1 0.25257 -0.96757 0.0038504 255 0 0
-0.066739 -0.0083081 -0.0050302 1 0.047914 0.99885 -0.0009293 255 0 0
-0.068399 -0.009688 -0.00013803 1 0.0096284 0.092276 0.99569 255 0 0
-0.066043 -0.0092881 -0.0050304 1 -0.0025556 -0.0015608 -1 255 0 0
-0.070008 -0.0078881 -0.0050225 1 -0.0025581 -0.0015527 -1 255 0 0
-0.070221 -0.0096981 -0.0047994 1 0.3647 0.050972 -0.92973 255 0 0
-0.069736 -0.007528 0.0051277 1 -0.0025469 -0.0015472 -1 255 0 0
-0.066518 -0.0066881 -0.0050333 1 -0.0025584 -0.00156 -1 255 0 0
-0.06695 -0.0096981 -0.0023088 1 0.0025562 0.0015622 1 255 0 0
-0.065648 -0.004968 0.0051133 1 0.0050187 0.99216 0.12488 255 0 0
-0.070122 -0.005468 0.0051255 1 -0.0025541 -0.0015617 -1 255 0 0
-0.066387 -0.005978 0.0051168 1 -0.001994 -0.38643 0.92231 255 0 0
-0.068309 -0.009688 0.0034497 1 -0.0025612 -0.0015489 -1 255 0 0
-0.06703 -0.008428 0.0051222 1 0.0025608 0.0015634 1 255 0 0
-0.067233 -0.0096981 -0.0036985 1 0.0025491 0.0015682 1 255 0 0
-0.069267 -0.009688 0.0029224 1 0.0025502 0.0015799 1 255 0 0
-0.069242 -0.0070081 -0.0050258 1 0.0025454 0.0015655 1 255 0 0
-0.065603 -0.009698 -0.00052633 1 0.0025548 0.0015574 1 255 0 0
-0.068086 -0.0065481 -0.0050295 1 0.0792 0.019738 -0.99666 255 0 0
-0.06592 -0.008558 0.0051196 1 0.0025542 0.00156 1 255 0 0
-0.065839 -0.009688 0.00294 1 0.0025487 0.0015776 1 255 0 0
-0.069061 -0.0096981 -0.0049729 1 0.047532 0.98379 0.17293 255 0 0
-0.066091 -0.009698 -0.0016483 1 0.066868 -0.99776 0.0018852 255 0 0
-0.069203 -0.0057481 -0.0050279 1 0.0025555 0.0015524 1 255 0 0
-0.068368 -0.0088181 -0.0050252 1 -0.0025245 -0.0015426 -1 255 0 0
-0.067076 -0.0096881 -0.0050272 1 -0.0025558 -0.0015617 -1 255 0 0
-0.068584 -0.0096981 -0.0030415 1 0.0025433 0.0015794 1 255 0 0
-0.067694 -0.006148 0.0051204 1 0.0014276 0.99999 -0.0036983 255 0 0
-0.069671 -0.0096981 -0.0037108 1 0.0025322 0.0015942 1 255 0 0
-0.067839 -0.0050481 -0.0050324 1 0.2908 0.05182 0.95538 255 0 0
-0.066236 -0.007388 0.0051186 1 -0.97851 -0.0748 -0.19217 255 0 0
-0.067978 -0.0076681 -0.005028 1 -0.013214 -0.081048 -0.99662 255 0 0
-0.069645 -0.009688 0.0044524 1 -0.088383 -0.23293 -0.96847 255 0 0
-0.066547 -0.009688 0.00070277 1 0.001964 0.99999 -0.003362 255 0 0
-0.068748 -0.009688 0.0010115 1 0.067542 -0.99772 0.00070016 255 0 0
-0.069972 -0.009688 0.00069237 1 0.00027535 0.99998 -0.0058253 255 0 0
-0.065453 -0.0055081 -0.0050378 1 0.067437 -0.99772 0.00082882 255 0 0
-0.06927 -0.009698 -0.0020328 1 -0.0025514 -0.0015443 -1 255 0 0
-0.068342 -0.005208 0.0051206 1 -0.0025537 -0.0015521 -1 255 0 0
-0.066708 -0.009688 0.0050516 1 0.045033 0.76671 -0.64042 255 0 0
-0.067818 -0.007348 0.0051225 1 -0.0025547 -0.0015668 -1 255 0 0
-0.065485 -0.0096981 -0.0028985 1 0.46884 -0.46367 0.75179 255 0 0
-0.066271 -0.009688 0.0018374 1 0.0025601 0.0015505 1 255 0 0
-0.069569 -0.008718 0.0051291 1 0.17557 0.5599 -0.80974 255 0 0
-0.068475 -0.008618 0.0051262 1 0.002562 0.0015648 1 255 0 0
-0.069747 -0.009698 -0.0010585 1 -2.5306e-07 -1 8.303e-06 255 0 0
-0.068476 -0.009688 0.0046704 1 0.11694 0.68484 -0.71925 255 0 0
-0.066863 -0.009688 0.0032825 1 -0.68115 -0.71781 -0.14418 255 0 0
-0.065714 -0.0077081 -0.0050337 1 0.047144 0.99888 -0.0047325 255 0 0
-0.068125 -0.0096981 -0.0044163 1 0.047679 0.99886 -0.0018595 255 0 0
-0.062321 -0.009698 0.00057607 1 -0.0025559 -0.0015453 -1 255 0 0
-0.060518 -0.009358 0.0051071 1 -0.002562 -0.0015716 -1 255 0 0
-0.061317 -0.006898 0.0051052 1 -0.033756 0.99461 -0.098029 255 0 0
-0.064291 -0.0049281 -0.0050417 1 2.5306e-07 1 -8.303e-06 255 0 0
-0.063393 -0.009688 0.001544 1 -0.19536 -0.98073 0.00096176 255 0 0
-0.06073 -0.009688 0.0020917 1 0.0025342 0.001566 1 255 0 0
-0.064702 -0.0067181 -0.0050379 1 0.0025488 0.0015629 1 255 0 0
-0.062172 -0.009688 0.0021382 1 -0.98828 -0.15261 0.0030497 255 0 0
-0.064518 -0.009698 -0.001306 1 0.06516 0.2366 -0.96942 255 0 0
-0.064189 -0.009698 0.00012667 1 0.0025707 0.0015588 1 255 0 0
-0.06356 -0.0079681 -0.0050388 1 0.0025592 0.0015679 1 255 0 0
-0.060781 -0.009688 0.0036124 1 0.0025588 0.001562 1 255 0 0
-0.06477 -0.009688 0.001113 1 0.0025722 0.0015803 1 255 0 0
-0.063827 -0.009688 0.0038659 1 -0.0025471 -0.0015671 -1 255 0 0
-0.063046 -0.0096981 -0.0023536 1 0.0025746 0.0015736 1 255 0 0
-0.064718 -0.008828 0.0051169 1 -0.0025572 -0.0015623 -1 255 0 0
-0.06414 -0.0096981 -0.0046603 1 0.068434 -0.99766 0.00042871 255 0 0
-0.060991 -0.0061681 -0.0050482 1 0.0089326 0.099718 0.99498 255 0 0
-0.061265 -0.0096981 -0.0041711 1 0.27324 0.059354 0.96011 255 0 0
-0.065067 -0.0096981 -0.0039302 1 0.044699 0.18638 -0.98146 255 0 0
-0.063521 -0.009688 0.0026181 1 -0.0025534 -0.0015626 -1 255 0 0
-0.060494 -0.0096981 -0.0032935 1 0.0025483 0.0015458 1 255 0 0
-0.06251 -0.009688 0.0044661 1 -0.0025539 -0.0015625 -1 255 0 0
-0.063011 -0.009698 -0.00098543 1 0.075244 -0.5815 0.81005 255 0 0
-0.061392 -0.0089081 -0.0050429 1 0.002539 0.0015585 1 255 0 0
-0.061584 -0.0076881 -0.0050443 1 0.0025673 0.0015527 1 255 0 0
-0.063391 -0.0067681 -0.0050411 1 -0.0025722 -0.0015878 -1 255 0 0
-0.060616 -0.0049781 -0.005051 1 0.0025633 0.0015431 1 255 0 0
-0.062209 -0.009688 0.0033177 1 0.15822 0.9874 -0.00045613 255 0 0
-0.064928 -0.009688 0.0023365 1 0.042366 -0.89332 0.44743 255 0 0
-0.062135 -0.0050081 -0.0050471 1 -0.0025582 -0.0015611 -1 255 0 0
-0.062661 -0.0096981 -0.0038608 1 -0.002557 -0.0015601 -1 255 0 0
-0.063011 -0.0090081 -0.0050386 1 -0.0025551 -0.0015764 -1 255 0 0
-0.061862 -0.0096981 -0.0030381 1 0.065333 -0.99786 0.0020244 255 0 0
-0.062261 -0.005658 0.0051057 1 -0.22698 0.9739 0.0017567 255 0 0
-0.060853 -0.009698 -0.00014183 1 -0.0025523 -0.0015642 -1 255 0 0
-0.061234 -0.009698 0.00094957 1 -0.19826 0.7712 -0.60495 255 0 0
-0.063519 -0.006338 0.00511 1 0.0075265 0.040287 0.99916 255 0 0
-0.062584 -0.0060081 -0.0050444 1 0.032947 -0.73524 0.677 255 0 0
-0.064054 -0.0096981 -0.0035521 1 -0.0025389 -0.0015642 -1 255 0 0
-0.061765 -0.009698 -0.00082093 1 0.0025588 0.0015649 1 255 0 0
-0.061392 -0.008688 0.0051082 1 0.0025682 0.0015606 1 255 0 0
-0.061108 -0.0096981 -0.0022521 1 -0.002564 -0.0015485 -1 255 0 0
-0.064167 -0.005428 0.0051102 1 0.047062 0.99889 -0.0012227 255 0 0
-0.064552 -0.007238 0.005114 1 -0.0025549 -0.0015381 -1 255 0 0
-0.063482 -0.007638 0.0051119 1 -0.0025588 -0.0015611 -1 255 0 0
-0.064751 -0.0086681 -0.0050347 1 0.0025578 0.0015811 1 255 0 0
-0.061133 -0.005248 0.0051022 1 0.0025474 0.0015676 1 255 0 0
-0.065132 -0.005998 0.0051136 1 -2.5306e-07 -1 8.303e-06 255 0 0
-0.064898 -0.009688 0.0035316 1 -0.0025586 -0.0015597 -1 255 0 0
-0.062399 -0.007198 0.0051085 1 -0.0025625 -0.0015356 -1 255 0 0
-0.062868 -0.008678 0.0051119 1 0.84818 0.42792 -0.3122 255 0 0
-0.063644 -0.009648 0.0051155 1 0.0025523 0.0015474 1 255 0 0
-0.057939 -0.009698 -0.00049343 1 -0.002539 -0.0015521 -1 255 0 0
-0.057823 -0.009698 -0.0017266 1 0.002555 0.0015691 1 255 0 0
-0.059062 -0.008628 0.0051021 1 0.087896 0.21952 0.97164 255 0 0
-0.058348 -0.0066581 -0.0050542 1 -0.22553 0.97423 -0.0017113 255 0 0
-0.059422 -0.009688 0.0035661 1 0.068812 -0.9939 0.086233 255 0 0
-0.059181 -0.009688 0.0049184 1 -0.0025568 -0.0015623 -1 255 0 0
-0.05697 -0.009688 0.0032263 1 0.0025605 0.0015225 1 255 0 0
-0.056528 -0.0058781 -0.0050601 1 -0.0025507 -0.0015619 -1 255 0 0
-0.056286 -0.009698 0.0017835 1 0.056868 0.77355 0.63117 255 0 0
-0.059319 -0.0096981 -0.0022738 1 0.030901 -0.11163 0.99327 255 0 0
-0.057041 -0.0088981 -0.005054 1 0.032873 0.99094 0.13019 255 0 0
-0.056047 -0.0077281 -0.0050584 1 0.25974 0.063516 0.96359 255 0 0
-0.058635 -0.0083081 -0.0050509 1 -0.0025533 -0.0015613 -1 255 0 0
-0.05862 -0.006488 0.0050977 1 0.002568 0.0015574 1 255 0 0
-0.056148 -0.009078 0.0050954 1 -0.0025536 -0.0015584 -1 255 0 0
-0.059024 -0.009698 -0.0011792 1 -4.282e-05 -1 0.0025395 255 0 0
-0.057445 -0.0077981 -0.0050547 1 -0.0025626 -0.0015574 -1 255 0 0
-0.058641 -0.004788 0.0050951 1 0.0025504 0.0015439 1 255 0 0
-0.055337 -0.0067181 -0.0050618 1 0.0025613 0.001577 1 255 0 0
-0.057357 -0.0096981 -0.003099 1 0.020312 0.080002 -0.99659 255 0 0
-0.059612 -0.009698 0.0013489 1 -0.0025552 -0.0015444 -1 255 0 0
-0.058636 -0.009688 0.0026579 1 -0.0025575 -0.0015745 -1 255 0 0
-0.056013 -0.007888 0.0050932 1 0.017105 -0.82875 0.55937 255 0 0
-0.055779 -0.0096981 -0.005056 1 -0.11596 -0.99325 0.0014293 255 0 0
-0.056696 -0.005818 0.0050917 1 -0.0025569 -0.0015604 -1 255 0 0
-0.059906 -0.006968 0.0051017 1 -0.0025567 -0.0015595 -1 255 0 0
-0.057921 -0.0051381 -0.0050577 1 -0.0025606 -0.0015477 -1 255 0 0
-0.05921 -0.0054381 -0.0050539 1 0 0 0 255 0 0
-0.060292 -0.008168 0.0051046 1 -0.0025571 -0.0015604 -1 255 0 0
-0.055404 -0.006558 0.0050896 1 -0.22638 0.97404 -0.0019805 255 0 0
-0.059813 -0.0091281 -0.0050466 1 -0.0025553 -0.0015819 -1 255 0 0
-0.057892 -0.0097081 -0.0049607 1 0.0025641 0.0015523 1 255 0 0
-0.057557 -0.009698 0.0017524 1 -0.065151 -0.071026 0.99534 255 0 0
-0.057301 -0.007158 0.0050954 1 -0.0025734 -0.0015527 -1 255 0 0
-0.057786 -0.008628 0.0050989 1 -0.0025572 -0.0015331 -1 255 0 0
-0.055587 -0.009698 0.00070477 1 0.015515 -0.042136 0.99899 255 0 0
-0.056269 -0.009698 -0.0012674 1 0.0025447 0.0015549 1 255 0 0
-0.060029 -0.0076081 -0.0050484 1 -0.86973 -0.49253 -0.031483 255 0 0
-0.058452 -0.009698 0.00090317 1 -0.0025555 -0.0015643 -1 255 0 0
-0.055853 -0.0097081 -0.0038986 1 2.5306e-07 1 -8.303e-06 255 0 0
-0.055395 -0.0053881 -0.0050637 1 0.19725 0.98033 -0.0065686 255 0 0
-0.060092 -0.005738 0.0051003 1 -0.0025592 -0.0015582 -1 255 0 0
-0.05847 -0.0096981 -0.0038222 1 0.0025613 0.0015638 1 255 0 0
-0.057835 -0.005698 0.0050944 1 2.5306e-07 1 -8.303e-06 255 0 0
-0.056489 -0.009698 -3.853e-05 1 -0.0025537 -0.0015608 -1 255 0 0
-0.057683 -0.009688 0.0047321 1 -0.0025533 -0.0015492 -1 255 0 0
-0.055916 -0.009698 0.002852 1 -0.012749 0.11668 0.99309 255 0 0
-0.056205 -0.0096981 -0.0027026 1 0.049964 -0.16162 0.98559 255 0 0
-0.059643 -0.0096981 -0.004012 1 -0.0025478 -0.0015458 -1 255 0 0
-0.059633 -0.009698 0.00014537 1 -0.22462 0.97444 -0.0018004 255 0 0
-0.059896 -0.0062981 -0.0050508 1 -0.00042843 -0.99999 0.0043521 255 0 0
-0.060186 -0.009698 -0.0010199 1 -0.0025523 -0.0015468 -1 255 0 0
-0.058533 -0.007648 0.0050993 1 -0.0025401 -0.0015502 -1 255 0 0
-0.058144 -0.009688 0.0036988 1 0.0025401 0.0015792 1 255 0 0
-0.05537 -0.009688 0.0046359 1 0.032871 -0.028943 -0.99904 255 0 0
-0.056363 -0.009688 0.0041219 1 0.0025715 0.0015659 1 255 0 0
-0.055355 -0.0086781 -0.0050587 1 0 0 0 255 0 0
-0.054821 -0.008388 0.0050909 1 0.0025469 0.0015375 1 255 0 0
-0.055152 -0.0096981 -0.0029701 1 0.010374 -0.40811 -0.91288 255 0 0
-0.054834 -0.009698 -0.0018505 1 -0.0025541 -0.0015604 -1 255 0 0
-0.052463 -0.006048 0.0050813 1 0.15847 0.98673 -0.035352 255 0 0
-0.052355 -0.009608 -0.00064153 1 -0.22571 0.97419 -0.0017368 255 0 0
-0.054512 -0.0095181 -0.0050595 1 -0.0025675 -0.0015479 -1 255 0 0
-0.050493 -0.0094881 -0.0040191 1 0.0025511 0.0015695 1 255 0 0
-0.052828 -0.009518 0.0050877 1 0.0025723 0.001544 1 255 0 0
-0.051084 -0.009518 0.0026339 1 0.0025626 0.0015545 1 255 0 0
-0.051914 -0.0064581 -0.0050709 1 0.0038849 -0.99994 0.010032 255 0 0
-0.053703 -0.007128 0.0050861 1 0.045663 0.99895 -0.0022414 255 0 0
-0.051188 -0.005988 0.0050779 1 -0.002574 -0.0015795 -1 255 0 0
-0.051944 -0.0076581 -0.005069 1 0.0025378 0.0015635 1 255 0 0
-0.053367 -0.0092281 -0.0050629 1 0.0025593 0.0015561 1 255 0 0
-0.054246 -0.009688 0.0043779 1 -0.0025576 -0.0015659 -1 255 0 0
-0.053117 -0.0096581 -0.0025721 1 0.0025576 0.0015779 1 255 0 0
-0.052228 -0.007158 0.0050824 1 -0.0049287 -0.050605 -0.99871 255 0 0
-0.051248 -0.009528 0.0043636 1 0.0025454 0.0015689 1 255 0 0
-0.051776 -0.0091181 -0.0050672 1 0.14248 0.98488 -0.098531 255 0 0
-0.054634 -0.0078481 -0.0050618 1 -0.22437 0.9745 -0.0018433 255 0 0
-0.055133 -0.005468 0.0050872 1 0.32516 0.077138 -0.94251 255 0 0
-0.051989 -0.0051881 -0.0050727 1 -0.0010121 0.99999 -0.0041963 255 0 0
-0.051116 -0.009518 -0.0013552 1 -0.00256 -0.0015404 -1 255 0 0
-0.054115 -0.009698 0.0026123 1 -0.98834 -0.15224 0.0026095 255 0 0
-0.054182 -0.0097081 -0.0038137 1 0.11815 0.53842 -0.83434 255 0 0
-0.053427 -0.004848 0.0050819 1 0.065933 -0.99782 0.00024269 255 0 0
-0.05165 -0.0095581 -0.0039578 1 -0.65629 0.75447 0.0072529 255 0 0
-0.053208 -0.0062381 -0.005068 1 -0.66977 0.74257 0.0017619 255 0 0
-0.05177 -0.0095681 -0.0023356 1 0 0 0 255 0 0
-0.052311 -0.009598 0.002539 1 -0.0025553 -0.0015606 -1 255 0 0
-0.052709 -0.0096281 -0.0037012 1 0.2915 0.051321 0.95519 255 0 0
-0.051407 -0.009538 0.00085757 1 -0.0025537 -0.0015631 -1 255 0 0
-0.055203 -0.009698 0.0018064 1 0.0025494 0.0015745 1 255 0 0
-0.051235 -0.009528 -0.00025833 1 -0.23577 0.97181 -0.0012555 255 0 0
-0.050572 -0.007528 0.0050787 1 0.0025441 0.0015658 1 255 0 0
-0.053249 -0.008408 0.0050869 1 0.0025688 0.0015348 1 255 0 0
-0.053753 -0.009698 -0.0012852 1 0 0 0 255 0 0
-0.053657 -0.005988 0.0050842 1 0.0025392 0.001567 1 255 0 0
-0.052337 -0.009598 0.0037628 1 0.0025757 0.001545 1 255 0 0
-0.050511 -0.0068781 -0.0050739 1 -0.0025803 -0.0015687 -1 255 0 0
-0.05313 -0.0076881 -0.0050659 1 0.0025509 0.0015634 1 255 0 0
-0.050405 -0.0080481 -0.0050723 1 -2.5306e-07 -1 8.303e-06 255 0 0
-0.054176 -0.0067381 -0.0050647 1 -0.0025459 -0.0015493 -1 255 0 0
-0.053994 -0.009698 0.00089097 1 -0.040786 0.37372 0.92665 255 0 0
-0.054967 -0.009688 0.003496 1 0.0025575 0.0015761 1 255 0 0
-0.050742 -0.0057781 -0.005075 1 -0.0046483 0.97767 -0.21012 255 0 0
-0.050753 -0.0094981 -0.0029387 1 0.0025286 0.0015401 1 255 0 0
-0.05132 -0.008648 0.0050824 1 0.0011788 0.99999 -0.0040769 255 0 0
-0.055226 -0.009698 -0.00071913 1 -2.5306e-07 -1 8.303e-06 255 0 0
-0.053457 -0.009678 -0.00019043 1 0.2598 0.063429 0.96358 255 0 0
-0.051534 -0.004828 0.005077 1 0.0025468 0.0015641 1 255 0 0
-0.053115 -0.009648 0.0017823 1 -0.0025614 -0.0015592 -1 255 0 0
-0.052541 -0.009618 0.00085817 1 -0.0025531 -0.0015644 -1 255 0 0
-0.05404 -0.0050581 -0.0050677 1 2.5306e-07 1 -8.303e-06 255 0 0
-0.050077 -0.0091381 -0.0050715 1 0.0025486 0.0015496 1 255 0 0
-0.045582 -0.0089181 -0.0050833 1 0.0025415 0.0016001 1 255 0 0
-0.049221 -0.009398 -0.00086673 1 0.0025731 0.0015573 1 255 0 0
-0.045334 -0.009128 0.0025747 1 0.0025732 0.001561 1 255 0 0
-0.048862 -0.0080181 -0.0050763 1 0.066038 -0.99781 0.0021592 255 0 0
-0.048682 -0.007488 0.0050738 1 0.049324 0.99878 -0.0016462 255 0 0
-0.045916 -0.0091781 -0.0027582 1 -0.0025624 -0.0015482 -1 255 0 0
-0.048602 -0.005868 0.0050711 1 -0.98833 -0.15233 0.0027862 255 0 0
-0.049993 -0.006418 0.0050755 1 0.0039065 -0.010066 0.99994 255 0 0
-0.046705 -0.0084581 -0.0050812 1 -0.002564 -0.0015867 -1 255 0 0
-0.048468 -0.0093481 -0.0029427 1 -0.0025488 -0.0015509 -1 255 0 0
-0.047954 -0.0090481 -0.005077 1 -0.0025475 -0.0015616 -1 255 0 0
-0.046156 -0.0071981 -0.0050845 1 -0.0025593 -0.0015711 -1 255 0 0
-0.049647 -0.0056281 -0.005078 1 0.011252 0.035541 0.99931 255 0 0
-0.048127 -0.0093281 -0.0039845 1 0.053173 0.52493 -0.84948 255 0 0
-0.045318 -0.009128 0.00046317 1 0.0025658 0.0015662 1 255 0 0
-0.04995 -0.0094481 -0.0021353 1 -0.0025693 -0.0015563 -1 255 0 0
-0.050292 -0.005128 0.0050743 1 0 0 0 255 0 0
-0.048823 -0.009358 0.0036686 1 -0.0024 -0.99999 0.0022076 255 0 0
-0.047804 -0.009298 0.0033079 1 -0.0025595 -0.0015628 -1 255 0 0
-0.049099 -0.009388 0.00043917 1 0.0025555 0.0015724 1 255 0 0
-0.0489 -0.008688 0.0050763 1 0.22101 0.97527 -0.00072215 255 0 0
-0.046078 -0.009188 -0.0015006 1 0.01763 0.31535 -0.94881 255 0 0
-0.050177 -0.009458 3.2685e-06 1 -0.0025504 -0.0015547 -1 255 0 0
-0.047884 -0.0061481 -0.0050817 1 -0.40027 -0.91639 0.003401 255 0 0
-0.047737 -0.009298 -0.00020953 1 -0.0025576 -0.0015632 -1 255 0 0
-0.046516 -0.006528 0.0050668 1 -0.0025537 -0.0015588 -1 255 0 0
-0.047474 -0.005678 0.0050679 1 -0.3435 0.93915 -3.5707e-05 255 0 0
-0.049792 -0.009428 0.0044482 1 0.00055149 0.99999 -0.0043372 255 0 0
-0.049284 -0.0069581 -0.0050769 1 0.0028884 -0.024408 0.9997 255 0 0
-0.048112 -0.009318 -0.0013648 1 -0.1903 0.97202 -0.13775 255 0 0
-0.045633 -0.0091581 -0.0038559 1 0.0025548 0.0015646 1 255 0 0
-0.046804 -0.0092381 -0.0038121 1 -0.20688 -0.96684 -0.14975 255 0 0
-0.046956 -0.009238 0.0024109 1 0.0025538 0.0015647 1 255 0 0
-0.050039 -0.009448 0.0030327 1 0.22063 0.97535 -0.0029887 255 0 0
-0.047957 -0.009308 0.0011243 1 0.046035 0.99894 -0.0025486 255 0 0
-0.04606 -0.009178 -0.00031843 1 0.035824 -0.92181 -0.38598 255 0 0
-0.047287 -0.0092681 -0.0027298 1 0.32507 0.078071 -0.94246 255 0 0
-0.050257 -0.009458 0.0011452 1 0.21278 -0.83634 0.50525 255 0 0
-0.048034 -0.009308 0.0047258 1 0.048823 0.97563 0.2139 255 0 0
-0.046746 -0.009218 0.0038816 1 -0.67007 0.7423 0.00043194 255 0 0
-0.045876 -0.004888 0.0050626 1 0.20416 0.97738 -0.055193 255 0 0
-0.049177 -0.009388 0.0017681 1 -0.0011865 -1 0.0017786 255 0 0
-0.046315 -0.009198 0.0013606 1 -0.40018 -0.91643 0.0037703 255 0 0
-0.047491 -0.0072181 -0.0050811 1 0.066471 -0.93696 -0.34305 255 0 0
-0.047552 -0.006938 0.0050701 1 0.0025781 0.0015698 1 255 0 0
-0.045597 -0.009148 0.0036599 1 -0.089886 -0.99593 0.0068957 255 0 0
-0.046038 -0.008878 0.0050692 1 -0.0025739 -0.0015748 -1 255 0 0
-0.045693 -0.007748 0.0050666 1 0.0025507 0.0015681 1 255 0 0
-0.046396 -0.0057781 -0.0050861 1 -0.28325 -0.95903 0.0062463 255 0 0
-0.049454 -0.0094181 -0.0035771 1 0.0025354 0.0015739 1 255 0 0
-0.047131 -0.008718 0.0050718 1 -0.9822 -0.18172 0.047496 255 0 0
-0.048999 -0.0093881 -0.0046394 1 -0.002544 -0.0015771 -1 255 0 0
-0.045275 -0.006158 0.0050631 1 -0.0025561 -0.0015704 -1 255 0 0
-0.041074 -0.008848 0.0021083 1 0.35964 0.062736 -0.93098 255 0 0
-0.043384 -0.007078 0.0050597 1 0.0025566 0.0015562 1 255 0 0
-0.043369 -0.008998 0.0015432 1 -0.0025588 -0.0015622 -1 255 0 0
-0.043627 -0.0086481 -0.0050887 1 0.0025484 0.0015631 1 255 0 0
-0.040475 -0.0079481 -0.0050979 1 -0.0022812 0.0028846 -0.99999 255 0 0
-0.042421 -0.0052381 -0.0050971 1 -0.0026508 -0.0020888 -0.99999 255 0 0
-0.042473 -0.0089481 -0.0050877 1 -0.0025548 -0.0015422 -1 255 0 0
-0.042763 -0.005278 0.0050553 1 0.19942 0.019495 0.97972 255 0 0
-0.041714 -0.008108 0.005057 1 0.03575 -0.05486 -0.99785 255 0 0
-0.040935 -0.0088481 -0.0042772 1 -0.003293 -0.0074475 -0.99997 255 0 0
-0.043841 -0.009038 -0.00045873 1 0.23251 0.13741 0.96284 255 0 0
-0.044783 -0.0053381 -0.0050909 1 -0.0025764 -0.001557 -1 255 0 0
-0.044206 -0.009058 0.00084217 1 -0.0025481 -0.0015511 -1 255 0 0
-0.040724 -0.008818 0.0043688 1 0.0025817 0.0015577 1 255 0 0
-0.044504 -0.007068 0.0050625 1 -0.0025535 -0.0015607 -1 255 0 0
-0.043066 -0.008538 0.0050611 1 0.0025711 0.0015446 1 255 0 0
-0.041429 -0.008868 -0.00029993 1 -0.0025489 -0.001567 -1 255 0 0
-0.042176 -0.0089281 -0.0029418 1 -0.0025648 -0.0015709 -1 255 0 0
-0.043517 -0.009008 0.0028473 1 0.23522 0.042948 0.97099 255 0 0
-0.040818 -0.0088381 -0.0025515 1 0.0025662 0.0015616 1 255 0 0
-0.043101 -0.0089881 -0.00386 1 0.0025525 0.0015543 1 255 0 0
-0.04186 -0.0077681 -0.0050946 1 0.0025313 0.0015599 1 255 0 0
-0.041902 -0.008898 0.0039073 1 -0.0025552 -0.0015527 -1 255 0 0
-0.04489 -0.0091081 -0.0022001 1 2.5306e-07 1 -8.303e-06 255 0 0
-0.043789 -0.0060681 -0.0050923 1 0.0025901 0.0015554 1 255 0 0
-0.043884 -0.0071981 -0.0050903 1 -0.0025774 -0.0015542 -1 255 0 0
-0.042258 -0.008928 0.0025669 1 -0.24872 -0.96652 -0.063052 255 0 0
-0.040424 -0.008798 0.00089407 1 0.086745 0.060591 0.99439 255 0 0
-0.040834 -0.007458 0.0050537 1 0.0025591 0.0015829 1 255 0 0
-0.040421 -0.006228 0.0050508 1 0.046686 0.99891 -0.0028593 255 0 0
-0.042794 -0.0066481 -0.005094 1 -0.0025431 -0.0015716 -1 255 0 0
-0.042925 -0.0089781 -0.0020243 1 -0.0049243 0.023427 -0.99971 255 0 0
-0.040918 -0.008828 0.0032396 1 -0.00257 -0.001544 -1 255 0 0
-0.040732 -0.0059781 -0.0051003 1 -0.0025716 -0.001563 -1 255 0 0
-0.043879 -0.0090381 -0.0029404 1 0.2201 0.97548 -0.0013246 255 0 0
-0.041989 -0.008908 0.0010128 1 -0.030399 -0.94931 0.31287 255 0 0
-0.044855 -0.0067281 -0.0050886 1 0.066962 -0.99775 0.0032374 255 0 0
-0.041643 -0.006158 0.0050538 1 -0.002563 -0.0015546 -1 255 0 0
-0.042284 -0.007168 0.005057 1 -2.5306e-07 -1 8.303e-06 255 0 0
-0.044698 -0.008978 0.005066 1 0.0025583 0.0015615 1 255 0 0
-0.044452 -0.009068 0.0019163 1 0.0025537 0.0015503 1 255 0 0
-0.042665 -0.008958 -0.00080233 1 0.0025781 0.0015805 1 255 0 0
-0.045047 -0.009118 -0.00079733 1 -0.00074519 -0.99999 0.0033749 255 0 0
-0.043552 -0.009008 0.0040444 1 -0.11668 -0.99317 0.00053739 255 0 0
-0.044476 -0.0090781 -0.0042585 1 -0.98919 -0.13963 -0.04483 255 0 0
-0.043717 -0.005928 0.0050587 1 0.0025377 0.0015607 1 255 0 0
-0.041324 -0.008868 -0.001508 1 -0.0025581 -0.0015504 -1 255 0 0
-0.043728 -0.0049781 -0.0050942 1 0.0025397 0.0015417 1 255 0 0
-0.042965 -0.008978 0.00027517 1 0.048789 0.99881 6.6253e-05 255 0 0
-0.035549 -0.008478 0.0017494 1 0.0025609 0.0015546 1 255 0 0
-0.037725 -0.0086281 -0.0049036 1 -0.04498 0.11379 -0.99248 255 0 0
-0.037258 -0.0076481 -0.0051066 1 -0.0025589 -0.0015633 -1 255 0 0
-0.038176 -0.0070081 -0.0051052 1 0.0025608 0.0015675 1 255 0 0
-0.036607 -0.0085481 -0.0026091 1 0.06596 -0.99782 0.0027015 255 0 0
-0.038809 -0.008688 0.0025761 1 -0.0025483 -0.0015841 -1 255 0 0
-0.038112 -0.007038 0.0050461 1 0.0025727 0.0015539 1 255 0 0
-0.036526 -0.006088 0.0050406 1 -0.0025578 -0.0015849 -1 255 0 0
-0.039234 -0.008718 0.0014593 1 -0.0025651 -0.0015908 -1 255 0 0
-0.03837 -0.008518 0.0050491 1 -0.0025475 -0.0015642 -1 255 0 0
-0.038662 -0.005588 0.0050453 1 0.28956 0.052391 0.95572 255 0 0
-0.039937 -0.008068 0.0050524 1 0.11063 -0.5359 -0.83701 255 0 0
-0.035825 -0.008498 0.00037517 1 0.0025472 0.0015726 1 255 0 0
-0.038682 -0.008688 -0.00075813 1 0.0025533 0.0015509 1 255 0 0
-0.036084 -0.0075481 -0.0051097 1 0.027772 -0.0068676 -0.99959 255 0 0
-0.036097 -0.008508 0.0032624 1 -0.057615 0.28784 -0.95594 255 0 0
-0.037151 -0.0085881 -0.0015296 1 -0.18316 0.9482 0.25954 255 0 0
-0.038444 -0.0086781 -0.0019441 1 0.92453 0.3811 6.2995e-05 255 0 0
-0.039204 -0.0087281 -0.0034012 1 0.002553 0.001545 1 255 0 0
-0.039428 -0.008738 0.00019077 1 -0.00024996 0.99999 -0.0041212 255 0 0
-0.037577 -0.008608 0.00023557 1 -0.001064 -0.99999 0.0044743 255 0 0
-0.036537 -0.0085481 -0.0049546 1 0.014474 0.53355 -0.84564 255 0 0
-0.039441 -0.006778 0.0050491 1 -0.020983 -0.09294 -0.99545 255 0 0
-0.039526 -0.0087481 -0.004936 1 0.00051309 -0.65361 0.75682 255 0 0
-0.039739 -0.0087581 -0.0022913 1 0.049683 0.83606 -0.5464 255 0 0
-0.039787 -0.008758 0.0033848 1 -0.0014152 -0.99999 0.0042935 255 0 0
-0.036524 -0.0059381 -0.0051111 1 -0.0025554 -0.0015688 -1 255 0 0
-0.037193 -0.008578 0.0039041 1 -0.0025548 -0.0015455 -1 255 0 0
-0.038659 -0.0080881 -0.0051023 1 0.0025313 0.0015746 1 255 0 0
-0.037913 -0.0086381 -0.0033857 1 0.0025389 0.0015658 1 255 0 0
-0.037072 -0.008578 0.002033 1 -0.0025483 -0.0015764 -1 255 0 0
-0.040168 -0.008788 -0.0012081 1 -0.00077216 -0.99999 0.0033793 255 0 0
-0.038653 -0.0056481 -0.0051061 1 0.046638 0.99891 -0.0021402 255 0 0
-0.037651 -0.0060581 -0.005108 1 -0.28497 -0.95854 0.00101 255 0 0
-0.036064 -0.008508 -0.0011011 1 -0.0019127 -1 0.0017388 255 0 0
-0.037539 -0.0048081 -0.0051103 1 0.0025655 0.0015456 1 255 0 0
-0.039614 -0.0072681 -0.0051011 1 -0.19765 -0.98027 0.0019572 255 0 0
-0.038068 -0.008648 0.0012469 1 0.019383 0.42901 0.9031 255 0 0
-0.036151 -0.004908 0.0050378 1 -0.0025292 -0.0015429 -1 255 0 0
-0.036382 -0.007708 0.0050427 1 -0.0025579 -0.0015585 -1 255 0 0
-0.036355 -0.0085381 -0.0037913 1 -0.0025739 -0.0015604 -1 255 0 0
-0.038337 -0.008658 0.0037855 1 0.00422 -0.99921 -0.039627 255 0 0
-0.036128 -0.008508 0.0043454 1 4.4569e-05 -0.99999 0.0050602 255 0 0
-0.036782 -0.008558 0.00098857 1 -0.0025635 -0.0015635 -1 255 0 0
-0.031172 -0.0078081 -0.0051219 1 -0.0025627 -0.0015524 -1 255 0 0
-0.032463 -0.0053781 -0.0051224 1 0.050862 -0.68571 0.7261 255 0 0
-0.034465 -0.008408 -0.00016644 1 0.0025471 0.0015898 1 255 0 0
-0.031842 -0.008218 0.0046753 1 0.067367 -0.99773 0.0008634 255 0 0
-0.032215 -0.0082581 -0.0015525 1 0.0025626 0.0015496 1 255 0 0
-0.033102 -0.0082081 -0.0051163 1 0.23775 0.97046 0.041114 255 0 0
-0.033217 -0.008318 -0.00042074 1 0.0025448 0.0015642 1 255 0 0
-0.030592 -0.007868 0.0050282 1 0 0 0 255 0 0
-0.032252 -0.008248 0.0024214 1 -0.11653 -0.99318 0.0035308 255 0 0
-0.031122 -0.0081881 -0.0037538 1 -0.0025541 -0.0015554 -1 255 0 0
-0.035217 -0.0084581 -0.0018085 1 -0.0025609 -0.0015802 -1 255 0 0
-0.035046 -0.0084481 -0.0034534 1 -0.0025553 -0.0015604 -1 255 0 0
-0.034846 -0.007308 0.0050382 1 -0.0010669 0.0053412 -0.99999 255 0 0
-0.033589 -0.007918 0.0050359 1 0.021571 -0.055779 -0.99821 255 0 0
-0.031042 -0.008168 0.0011439 1 0.013398 -0.99989 0.0070957 255 0 0
-0.030882 -0.008158 0.0029834 1 0.066896 -0.99776 0.00027217 255 0 0
-0.032619 -0.0082881 -0.003968 1 0.36359 0.062108 -0.92949 255 0 0
-0.033197 -0.005608 0.0050313 1 -0.0025586 -0.0015578 -1 255 0 0
-0.034334 -0.008388 0.0027901 1 0.047985 0.99884 -0.0031365 255 0 0
-0.032155 -0.008248 -0.00024444 1 0.015338 -0.12505 -0.99203 255 0 0
-0.032002 -0.0082381 -0.0028201 1 0.25988 0.063558 0.96355 255 0 0
-0.030562 -0.008148 -0.0012417 1 -0.035083 -0.70302 0.7103 255 0 0
-0.030302 -0.008128 0.00013556 1 0.0025596 0.0015715 1 255 0 0
-0.035004 -0.0062781 -0.0051145 1 0.0025683 0.0015725 1 255 0 0
-0.033657 -0.006598 0.005034 1 -0.0025541 -0.0015597 -1 255 0 0
-0.034468 -0.0047881 -0.0051182 1 -0.11594 -0.99326 0.00050379 255 0 0
-0.032747 -0.008288 0.00071386 1 -0.0025574 -0.0015623 -1 255 0 0
-0.030522 -0.0060881 -0.0051262 1 0 0 0 255 0 0
-0.035253 -0.005948 0.0050371 1 -0.0025544 -0.0015615 -1 255 0 0
-0.034115 -0.008378 0.00091876 1 -0.0025601 -0.0015567 -1 255 0 0
-0.031052 -0.0081781 -0.0022713 1 -0.0025538 -0.0015572 -1 255 0 0
-0.034773 -0.008418 0.0038905 1 -0.034779 0.26629 -0.96326 255 0 0
-0.031232 -0.0051681 -0.0051258 1 0.14816 0.036077 0.9883 255 0 0
-0.033605 -0.0055281 -0.0051192 1 -0.67094 0.74151 0.0002607 255 0 0
-0.033265 -0.008318 0.0029122 1 0.015336 0.91218 -0.40951 255 0 0
-0.031772 -0.005068 0.0050269 1 -0.19487 -0.98083 0.0012295 255 0 0
-0.034996 -0.0077681 -0.0051122 1 -0.0025564 -0.0015582 -1 255 0 0
-0.031222 -0.006688 0.005028 1 0.096484 -0.50774 -0.8561 255 0 0
-0.033909 -0.0070781 -0.005116 1 -0.025125 -0.99895 -0.038341 255 0 0
-0.032451 -0.0071681 -0.0051196 1 0.23235 0.044734 0.9716 255 0 0
-0.031722 -0.0063581 -0.0051227 1 0.002589 0.0015786 1 255 0 0
-0.032483 -0.007008 0.0050317 1 -0.0025479 -0.0015564 -1 255 0 0
-0.033907 -0.004758 0.0050318 1 -0.0025309 -0.0015424 -1 255 0 0
-0.033404 -0.0083381 -0.0031444 1 -0.0025472 -0.0015675 -1 255 0 0
-0.03424 -0.0083981 -0.0042665 1 0.0025522 0.0015734 1 255 0 0
-0.031852 -0.008228 0.0035064 1 -0.13122 0.99133 0.0070423 255 0 0
-0.033832 -0.0083681 -0.0016409 1 -0.059004 0.85838 -0.50962 255 0 0
-0.035295 -0.008378 0.005041 1 0.0040592 0.042821 0.99907 255 0 0
-0.032842 -0.008288 0.0042231 1 0.025891 -0.64919 -0.7602 255 0 0
-0.030552 -0.005838 0.0050249 1 -0.0047031 -0.28884 -0.95737 255 0 0
-0.027312 -0.0079281 -0.002537 1 0.0025522 0.0015622 1 255 0 0
-0.025852 -0.005388 0.0050122 1 -0.14816 0.66801 -0.72925 255 0 0
-0.029742 -0.0048881 -0.0051301 1 0.22132 0.9752 -0.002859 255 0 0
-0.029812 -0.0074981 -0.0051258 1 0.0025685 0.001538 1 255 0 0
-0.027362 -0.0073581 -0.0051323 1 -0.98872 -0.1497 -0.004628 255 0 0
-0.029182 -0.0063781 -0.0051292 1 -0.0025622 -0.0015767 -1 255 0 0
-0.029012 -0.008038 0.002827 1 -0.12943 0.92599 -0.35469 255 0 0
-0.029612 -0.006748 0.0050239 1 0.15014 0.45975 0.87527 255 0 0
-0.027992 -0.0079781 -0.0041527 1 2.5306e-07 1 -8.303e-06 255 0 0
-0.025322 -0.007788 0.00035805 1 0.0025345 0.0015568 1 255 0 0
-0.025502 -0.0078081 -0.0029691 1 0.048302 0.99883 -0.0019907 255 0 0
-0.025712 -0.006888 0.0050142 1 0.0025617 0.0015519 1 255 0 0
-0.026492 -0.0078781 -0.0035862 1 0.064173 0.09574 0.99334 255 0 0
-0.026332 -0.0078681 -0.0048443 1 -0.061089 -0.96363 -0.26017 255 0 0
-0.026352 -0.007858 0.0035935 1 0.0093064 -0.056164 -0.99838 255 0 0
-0.028172 -0.006958 0.0050206 1 -0.0025588 -0.0015622 -1 255 0 0
-0.027292 -0.004728 0.0050149 1 0.067357 -0.99773 -0.00033553 255 0 0
-0.025552 -0.007808 -0.00088455 1 -0.0025645 -0.0015537 -1 255 0 0
-0.029262 -0.008058 -0.00026644 1 0.002541 0.0015368 1 255 0 0
-0.027572 -0.007938 0.0015522 1 0.0025668 0.0015629 1 255 0 0
-0.028202 -0.0079881 -0.0018376 1 0 0 0 255 0 0
-0.026642 -0.007878 -0.00050944 1 0 0 0 255 0 0
-0.025662 -0.0054381 -0.0051397 1 2.5306e-07 1 -8.303e-06 255 0 0
-0.029162 -0.008048 0.00093996 1 -0.006343 0.011232 -0.99992 255 0 0
-0.027912 -0.007968 6.7057e-05 1 0.00073808 0.019947 0.9998 255 0 0
-0.029102 -0.005288 0.0050204 1 0 0 0 255 0 0
-0.027782 -0.007948 0.0038042 1 -0.0025535 -0.0015633 -1 255 0 0
-0.027462 -0.0058781 -0.0051344 1 0.0025614 0.0015256 1 255 0 0
-0.028502 -0.0051581 -0.0051328 1 0.32535 0.077894 -0.94238 255 0 0
-0.026302 -0.007858 0.0011214 1 -0.0025405 -0.0015449 -1 255 0 0
-0.029602 -0.0080781 -0.0025983 1 0.0049024 -0.070926 -0.99747 255 0 0
-0.026292 -0.0078581 -0.0017203 1 0.0025581 0.0015305 1 255 0 0
-0.029732 -0.008088 0.001982 1 0.0025888 0.0015358 1 255 0 0
-0.026982 -0.006498 0.0050168 1 -0.023238 -0.99868 0.045878 255 0 0
-0.029612 -0.0080881 -0.0040868 1 -0.12951 -0.66473 -0.73577 255 0 0
-0.027422 -0.007928 0.0027041 1 0.019103 -0.98146 -0.19069 255 0 0
-0.028972 -0.008028 0.0039277 1 0.018041 -0.48936 -0.8719 255 0 0
-0.027922 -0.005748 0.005018 1 -0.62303 0.69759 -0.35384 255 0 0
-0.025972 -0.007828 0.0022628 1 0.065612 -0.99784 0.00060841 255 0 0
-0.026742 -0.007878 0.0047872 1 0.012299 -0.16595 -0.98606 255 0 0
-0.026492 -0.0065781 -0.0051358 1 0.047592 0.99887 -0.0011339 255 0 0
-0.028662 -0.0080181 -0.0031367 1 -0.00066478 -0.99999 0.0037381 255 0 0
-0.029362 -0.007988 0.0050252 1 0.0025665 0.0015527 1 255 0 0
-0.028782 -0.0080281 -0.0049572 1 0.002565 0.0015525 1 255 0 0
-0.023112 -0.007638 0.0014983 1 0.0025633 0.0015668 1 255 0 0
-0.021842 -0.007558 0.0016679 1 0.0025461 0.0015737 1 255 0 0
-0.023532 -0.007668 0.0026542 1 0 0 0 255 0 0
-0.025292 -0.0066081 -0.0051388 1 -0.0025583 -0.0015762 -1 255 0 0
-0.022642 -0.0076181 -0.0023562 1 -0.033585 -0.065876 -0.99726 255 0 0
-0.023182 -0.007638 0.0040971 1 0.0025432 0.0015595 1 255 0 0
-0.021842 -0.0073081 -0.0051466 1 0.0025493 0.001552 1 255 0 0
-0.025002 -0.0077781 -0.0041675 1 -0.0025564 -0.001563 -1 255 0 0
-0.024652 -0.007738 0.0047762 1 0.0089068 0.80102 -0.59858 255 0 0
-0.024312 -0.0077281 -0.0051284 1 -0.0025571 -0.0015609 -1 255 0 0
-0.024392 -0.0077281 -0.0019803 1 0.0095982 0.40095 0.91605 255 0 0
-0.020422 -0.0074681 -0.0018539 1 0.049282 0.99878 -0.0025376 255 0 0
-0.021552 -0.0075381 -0.0020547 1 0.28172 -0.95502 -0.092594 255 0 0
-0.024882 -0.004838 0.0050089 1 -0.0025512 -0.0015692 -1 255 0 0
-0.023772 -0.0076881 -0.0028667 1 -0.0025582 -0.0015597 -1 255 0 0
-0.020752 -0.004978 0.0049986 1 0.36324 0.06233 -0.92961 255 0 0
-0.023842 -0.007688 -7.7645e-05 1 0.0025556 0.0015603 1 255 0 0
-0.020362 -0.0062581 -0.0051519 1 -0.1888 0.98201 0.0021446 255 0 0
-0.022262 -0.007578 0.0028428 1 0.0025324 0.0015703 1 255 0 0
-0.021852 -0.0048981 -0.0051503 1 0.0035621 -0.99112 0.1329 255 0 0
-0.023622 -0.0066181 -0.0051431 1 2.5306e-07 1 -8.303e-06 255 0 0
-0.024432 -0.006388 0.0050101 1 -0.0025599 -0.0015652 -1 255 0 0
-0.023832 -0.005278 0.0050069 1 0.0025665 0.0015574 1 255 0 0
-0.023352 -0.0052681 -0.0051458 1 0.0025502 0.0015685 1 255 0 0
-0.021122 -0.007048 0.0050027 1 -0.6706 0.74182 0.0016785 255 0 0
-0.020732 -0.007478 0.0028604 1 0.0025531 0.0015574 1 255 0 0
-0.020482 -0.0074081 -0.0051499 1 -0.092095 -0.99574 0.0039371 255 0 0
-0.022802 -0.006358 0.0050059 1 0.0025507 0.0015705 1 255 0 0
-0.020422 -0.007458 -4.9447e-05 1 -0.0024964 -0.0010076 -1 255 0 0
-0.024792 -0.007748 0.0014993 1 -0.045895 -0.22026 0.97436 255 0 0
-0.020622 -0.0074781 -0.0038918 1 0.0025607 0.0015705 1 255 0 0
-0.021752 -0.0075581 -0.0035423 1 0.010423 -0.35035 0.93656 255 0 0
-0.022052 -0.0060781 -0.0051479 1 0.011792 0.07203 0.99733 255 0 0
-0.021922 -0.007558 0.00033085 1 -0.0025539 -0.0015582 -1 255 0 0
-0.022922 -0.0076381 -0.0038211 1 -0.27029 -0.96278 0.0019917 255 0 0
-0.021992 -0.005638 0.0050027 1 -0.0025652 -0.001542 -1 255 0 0
-0.024472 -0.0055781 -0.0051425 1 0.33972 0.070368 -0.93789 255 0 0
-0.023692 -0.007178 0.0050095 1 0.29211 0.069391 -0.95386 255 0 0
-0.022492 -0.0075981 -0.0011567 1 -0.0017702 -0.99999 0.0037551 255 0 0
-0.021292 -0.007518 -0.00068795 1 -0.0025463 -0.0015694 -1 255 0 0
-0.024312 -0.007718 0.0036979 1 -0.0025562 -0.001568 -1 255 0 0
-0.023172 -0.0076481 -0.0049217 1 0.21886 0.97575 -0.0015461 255 0 0
-0.022012 -0.007558 0.0043258 1 -0.0061274 -0.99279 -0.1197 255 0 0
-0.020952 -0.007488 0.0039242 1 -0.084933 -0.99634 -0.010081 255 0 0
-0.020382 -0.006158 0.0049994 1 -0.00079789 -0.032092 -0.99948 255 0 0
-0.016152 -0.007168 0.0037767 1 -0.0011667 0.93618 0.35152 255 0 0
-0.018252 -0.005518 0.004993 1 0.0025506 0.0015635 1 255 0 0
-0.016222 -0.007178 0.002467 1 0.0025733 0.0015758 1 255 0 0
-0.020262 -0.007448 0.001565 1 0.0025521 0.001561 1 255 0 0
-0.019382 -0.007398 -0.00074515 1 -0.002547 -0.001568 -1 255 0 0
-0.017672 -0.007268 0.0036435 1 -0.0025612 -0.0015601 -1 255 0 0
-0.017712 -0.007278 0.00089315 1 0.048311 0.99883 -0.0022103 255 0 0
-0.018392 -0.0073281 -0.0025568 1 0.0025589 0.0015468 1 255 0 0
-0.018952 -0.007358 0.0026624 1 -0.0025569 -0.0015702 -1 255 0 0
-0.018312 -0.0073281 -0.0050599 1 0.0025528 0.0015496 1 255 0 0
-0.017072 -0.0072381 -0.0019588 1 0.0025815 0.0015621 1 255 0 0
-0.015932 -0.0051081 -0.0051651 1 -0.018963 0.06167 -0.99792 255 0 0
-0.018702 -0.0073481 -0.0036427 1 -2.5306e-07 -1 8.303e-06 255 0 0
-0.019292 -0.0066581 -0.0051541 1 0.083612 -0.97114 -0.22337 255 0 0
-0.016502 -0.007198 0.0013391 1 0.072385 0.020086 0.99717 255 0 0
-0.019312 -0.005808 0.0049962 1 -0.0025632 -0.001547 -1 255 0 0
-0.016962 -0.007218 0.0049024 1 0.0025551 0.0015579 1 255 0 0
-0.020112 -0.0074481 -0.0029326 1 0 0 0 255 0 0
-0.015942 -0.0067481 -0.0051625 1 -0.19769 -0.98026 0.0019862 255 0 0
-0.017372 -0.0072581 -0.0032166 1 -0.026229 0.6374 -0.77008 255 0 0
-0.017492 -0.0065081 -0.0051589 1 -0.0025599 -0.0015588 -1 255 0 0
-0.016222 -0.0071881 -0.0035927 1 -0.0087364 -0.88219 -0.4708 255 0 0
-0.017342 -0.007258 -0.00050235 1 0.0025662 0.0015531 1 255 0 0
-0.015772 -0.0071481 -0.0023509 1 -0.0025503 -0.0015638 -1 255 0 0
-0.016832 -0.005398 0.0049892 1 -0.012231 0.88079 -0.47336 255 0 0
-0.015792 -0.006078 0.0049876 1 0.0025821 0.0015622 1 255 0 0
-0.016342 -0.007188 9.9751e-05 1 0.22157 0.97514 -0.0024068 255 0 0
-0.017202 -0.0053081 -0.0051615 1 0.028429 0.41931 0.9074 255 0 0
-0.018172 -0.0073081 -0.0012748 1 0.21975 0.97555 -0.0024795 255 0 0
-0.018912 -0.0055581 -0.0051567 1 -0.0025575 -0.0015601 -1 255 0 0
-0.019602 -0.0074081 -0.0042665 1 0.047916 0.99885 -0.0010785 255 0 0
-0.019862 -0.007418 0.0037183 1 0.0025631 0.0015485 1 255 0 0
-0.018652 -0.007338 0.0014405 1 -0.0025547 -0.0015669 -1 255 0 0
-0.017292 -0.007248 0.0021023 1 0.0025557 0.0015506 1 255 0 0
-0.020072 -0.007368 0.0050005 1 -0.0025554 -0.0015626 -1 255 0 0
-0.017192 -0.0072481 -0.0044063 1 0.0022528 0.99999 -0.0042497 255 0 0
-0.018152 -0.007298 0.0048778 1 0.0025483 0.0015787 1 255 0 0
-0.018592 -0.007338 7.7852e-05 1 0.033945 -0.62462 0.78018 255 0 0
-0.016142 -0.0071781 -0.00098705 1 -0.0025545 -0.0015579 -1 255 0 0
-0.019552 -0.007398 0.00072185 1 -0.0025572 -0.0015586 -1 255 0 0
-0.015682 -0.007138 0.0048438 1 -0.0025551 -0.0015608 -1 255 0 0
-0.012332 -0.005538 0.0049779 1 0.0025714 0.0015479 1 255 0 0
-0.014862 -0.005238 0.0049839 1 -0.010784 -0.99994 0.0027669 255 0 0
-0.014132 -0.0070481 -0.0036088 1 0.0025494 0.0015495 1 255 0 0
-0.015082 -0.0071081 -0.004356 1 0.20115 0.97956 0.0028101 255 0 0
-0.010832 -0.0068181 -0.00137 1 0.066421 -0.99778 0.0038426 255 0 0
-0.014592 -0.007068 0.0049246 1 0.047075 0.99888 -0.0037862 255 0 0
-0.014142 -0.007038 0.0036215 1 -0.002555 -0.0015861 -1 255 0 0
-0.014492 -0.0065181 -0.0051666 1 -0.015103 -0.027347 -0.99951 255 0 0
-0.012282 -0.0069181 -0.0029392 1 -0.0025585 -0.001561 -1 255 0 0
-0.013322 -0.006978 0.0044197 1 2.9393e-05 0.99999 -0.0038654 255 0 0
-0.010652 -0.006798 0.002916 1 -0.0025627 -0.0015642 -1 255 0 0
-0.010342 -0.006778 0.0045501 1 0.094035 -0.99557 9.7324e-05 255 0 0
-0.013242 -0.0052881 -0.0051717 1 -0.053313 0.94932 0.30973 255 0 0
-0.013012 -0.0069681 -0.0012301 1 -0.002567 -0.0015638 -1 255 0 0
-0.011702 -0.0068781 -0.0042059 1 -0.002557 -0.0015603 -1 255 0 0
-0.014692 -0.0052481 -0.005168 1 0.069665 -0.99757 0.0014695 255 0 0
-0.012402 -0.006918 0.0014861 1 -0.0025592 -0.0015381 -1 255 0 0
