ply
format ascii 1.0
comment author Paulo Abelha (p.abelha at abdn ac uk)
element vertex 1330
property float x
property float y
property float z
property int segm
property uchar red
property uchar green
property uchar blue
end_header
0.034544 0.11628 0.0096618 1 255 0 0
0.03191 0.13423 0.010799 1 255 0 0
0.078087 0.12731 0.022087 1 255 0 0
0.063195 0.12662 0.021883 1 255 0 0
0.053348 0.12034 0.01976 1 255 0 0
0.10931 0.13064 0.021261 1 255 0 0
0.17103 0.1374 0.011034 19 0 0 255
0.0655 0.11938 0.014785 1 255 0 0
0.12414 0.12598 0.012701 1 255 0 0
0.028936 0.1185 0.018215 1 255 0 0
0.019207 0.11857 0.01838 1 255 0 0
0.059574 0.12827 0.0053724 1 255 0 0
0.010218 0.12149 0.011041 1 255 0 0
0.012445 0.11545 0.01123 1 255 0 0
0.17451 0.11217 0.0077945 19 0 0 255
0.076093 0.13286 0.015413 1 255 0 0
0.20016 0.13517 0.0066214 19 0 0 255
0.087797 0.12869 0.014606 1 255 0 0
0.016602 0.11929 0.0098626 1 255 0 0
0.17285 0.11463 0.0085461 19 0 0 255
0.10604 0.12562 0.01064 1 255 0 0
0.12546 0.1275 0.022973 1 255 0 0
0.23148 0.11745 0.021284 19 0 0 255
0.17375 0.13274 0.0097983 19 0 0 255
0.20832 0.12469 0.010807 19 0 0 255
0.067639 0.13229 0.014846 1 255 0 0
0.088973 0.12206 0.0098616 1 255 0 0
0.14282 0.12433 0.017618 1 255 0 0
0.092428 0.12274 0.021585 1 255 0 0
0.15208 0.12876 0.01626 1 255 0 0
0.11278 0.12232 0.016333 1 255 0 0
0.07799 0.13009 0.0081267 1 255 0 0
0.10826 0.12578 0.017629 1 255 0 0
0.05841 0.11946 0.01894 1 255 0 0
0.048824 0.1305 0.011965 1 255 0 0
0.020907 0.12745 0.011724 1 255 0 0
0.11443 0.13055 0.018014 1 255 0 0
0.050348 0.12515 0.021531 1 255 0 0
0.047236 0.11814 0.017625 1 255 0 0
0.040514 0.12834 0.011418 1 255 0 0
0.0088603 0.12196 0.010946 1 255 0 0
0.19886 0.13174 0.0064117 19 0 0 255
0.051061 0.13171 0.020145 1 255 0 0
0.074366 0.13361 0.018023 1 255 0 0
0.18377 0.14046 0.0068038 19 0 0 255
0.17146 0.11198 0.010681 19 0 0 255
0.053479 0.12371 0.013946 1 255 0 0
0.14739 0.12225 0.018126 1 255 0 0
0.2008 0.12161 0.0068898 19 0 0 255
0.078627 0.13065 0.013975 1 255 0 0
0.053529 0.11901 0.018502 1 255 0 0
0.18758 0.13486 0.0050096 19 0 0 255
0.028743 0.11581 0.01024 1 255 0 0
0.12689 0.12514 0.013542 1 255 0 0
0.13308 0.12517 0.019297 1 255 0 0
0.07943 0.12024 0.010135 1 255 0 0
0.056419 0.13499 0.010344 1 255 0 0
0.0092486 0.1359 0.0043352 1 255 0 0
0.067502 0.12708 0.021911 1 255 0 0
0.20205 0.11665 0.0089465 19 0 0 255
0.024237 0.12203 0.011983 1 255 0 0
0.037922 0.1227 0.020771 1 255 0 0
0.12502 0.12611 0.023065 1 255 0 0
0.050608 0.1351 0.013679 1 255 0 0
0.13016 0.12664 0.017281 1 255 0 0
0.099261 0.1244 0.010048 1 255 0 0
0.024383 0.136 0.006265 1 255 0 0
0.13524 0.12672 0.017762 1 255 0 0
0.045762 0.12057 0.0052931 1 255 0 0
0.21644 0.13421 0.013371 19 0 0 255
0.16636 0.12943 0.013331 19 0 0 255
0.081633 0.12998 0.0085218 1 255 0 0
0.033952 0.12693 0.012607 1 255 0 0
0.073131 0.1285 0.021846 1 255 0 0
0.15924 0.13351 0.016006 19 0 0 255
0.15801 0.12548 0.014739 1 255 0 0
0.032616 0.12164 0.020323 1 255 0 0
0.098045 0.13042 0.021333 1 255 0 0
0.0072648 0.12089 0.001571 1 255 0 0
0.17096 0.13995 0.0092515 19 0 0 255
0.10706 0.12904 0.011234 1 255 0 0
0.083019 0.13056 0.0090369 1 255 0 0
0.078111 0.12016 0.019492 1 255 0 0
0.078396 0.13068 0.015582 1 255 0 0
0.082618 0.12806 0.0080235 1 255 0 0
0.039528 0.12401 0.021203 1 255 0 0
0.028728 0.13607 0.015569 1 255 0 0
0.013115 0.12778 0.0095726 1 255 0 0
0.10935 0.12221 0.01239 1 255 0 0
0.058684 0.11749 0.014443 1 255 0 0
0.037701 0.12535 0.01287 1 255 0 0
0.025694 0.13661 0.014619 1 255 0 0
0.09559 0.12019 0.012826 1 255 0 0
0.010429 0.12661 0.020833 1 255 0 0
0.046265 0.12278 0.013465 1 255 0 0
0.034622 0.12844 0.01102 1 255 0 0
0.016313 0.11989 0.011462 1 255 0 0
0.010798 0.12118 0.00075997 1 255 0 0
0.22797 0.12967 0.019322 19 0 0 255
0.19243 0.11505 0.0067491 19 0 0 255
0.17247 0.11661 0.01049 19 0 0 255
0.19214 0.1148 0.0051146 19 0 0 255
0.023578 0.13545 0.010229 1 255 0 0
0.055911 0.12482 0.012479 1 255 0 0
0.056785 0.11734 0.013707 1 255 0 0
0.21737 0.13794 0.013119 19 0 0 255
0.032132 0.13219 0.0035847 1 255 0 0
0.21712 0.12838 0.01255 19 0 0 255
0.024086 0.12764 0.010314 1 255 0 0
0.021786 0.13571 0.016573 1 255 0 0
0.11477 0.13191 0.015435 1 255 0 0
0.21137 0.12376 0.01204 19 0 0 255
0.19074 0.13142 0.0049375 19 0 0 255
0.20645 0.12787 0.0097144 19 0 0 255
0.12609 0.13137 0.017173 1 255 0 0
0.0026487 0.12016 0.014395 1 255 0 0
0.14467 0.13044 0.017514 1 255 0 0
0.14103 0.12558 0.019332 1 255 0 0
0.027503 0.12952 0.012155 1 255 0 0
0.047995 0.12763 0.0039616 1 255 0 0
0.045063 0.13051 0.0043407 1 255 0 0
0.17083 0.13097 0.0093678 19 0 0 255
0.16283 0.12787 0.013049 19 0 0 255
0.016055 0.13708 0.0097111 1 255 0 0
0.011159 0.13353 0.0018918 1 255 0 0
0.20873 0.13526 0.0092917 19 0 0 255
0.22893 0.11737 0.019889 19 0 0 255
0.0098794 0.1264 0.010986 1 255 0 0
0.14236 0.13001 0.019238 1 255 0 0
0.21059 0.13468 0.011685 19 0 0 255
0.052515 0.13365 0.0075004 1 255 0 0
0.19409 0.13543 0.0052081 19 0 0 255
0.17434 0.12266 0.0078079 19 0 0 255
0.058707 0.11808 0.016867 1 255 0 0
0.057509 0.12213 0.0058622 1 255 0 0
0.017799 0.13474 0.0036339 1 255 0 0
0.22148 0.13682 0.016139 19 0 0 255
0.098603 0.12292 0.015372 1 255 0 0
0.16951 0.13983 0.011068 19 0 0 255
0.086437 0.12876 0.014514 1 255 0 0
0.10855 0.12834 0.016009 1 255 0 0
0.045928 0.12003 0.01346 1 255 0 0
0.057543 0.1304 0.02092 1 255 0 0
0.21925 0.12795 0.014748 19 0 0 255
0.014417 0.13307 0.018989 1 255 0 0
0.086857 0.12839 0.0085968 1 255 0 0
0.093524 0.12828 0.0093531 1 255 0 0
0.16023 0.12366 0.015733 1 255 0 0
0.028944 0.11944 0.0038764 1 255 0 0
0.0090892 0.13487 0.010879 1 255 0 0
0.0060933 0.12376 0.0010131 1 255 0 0
0.17039 0.12302 0.01145 19 0 0 255
0.19271 0.1379 0.0049943 19 0 0 255
0.07989 0.11884 0.012933 1 255 0 0
0.1497 0.12225 0.016803 1 255 0 0
0.071019 0.12227 0.013515 1 255 0 0
0.029817 0.13373 0.012285 1 255 0 0
0.0066866 0.11593 0.0088356 1 255 0 0
0.066028 0.12385 0.006262 1 255 0 0
0.059375 0.1305 0.012677 1 255 0 0
0.15753 0.13063 0.016532 1 255 0 0
0.094416 0.12087 0.020086 1 255 0 0
0.079564 0.12169 0.015719 1 255 0 0
0.022709 0.12537 0.021024 1 255 0 0
0.21123 0.12157 0.010293 19 0 0 255
0.012017 0.12401 0.020676 1 255 0 0
0.093987 0.13298 0.013447 1 255 0 0
0.10586 0.12221 0.011935 1 255 0 0
0.018704 0.12267 0.0099826 1 255 0 0
0.10661 0.12883 0.022252 1 255 0 0
0.17412 0.13407 0.0096188 19 0 0 255
0.065621 0.13291 0.014706 1 255 0 0
0.0052274 0.12692 0.0090459 1 255 0 0
0.17304 0.11156 0.0097098 19 0 0 255
0.074904 0.13246 0.01961 1 255 0 0
0.082412 0.12075 0.014294 1 255 0 0
0.16961 0.13667 0.0099423 19 0 0 255
0.036006 0.12396 0.012765 1 255 0 0
0.084822 0.13345 0.012653 1 255 0 0
0.018488 0.12151 0.0014102 1 255 0 0
0.09368 0.12204 0.010482 1 255 0 0
0.089441 0.1304 0.0097499 1 255 0 0
0.19873 0.13479 0.0069751 19 0 0 255
0.19112 0.12051 0.0064767 19 0 0 255
0.021269 0.11551 0.012935 1 255 0 0
0.029833 0.11581 0.01197 1 255 0 0
0.19698 0.12126 0.0058447 19 0 0 255
0.0030288 0.12162 0.0041274 1 255 0 0
0.088947 0.128 0.016311 1 255 0 0
0.21692 0.13091 0.01245 19 0 0 255
0.043312 0.11767 0.016912 1 255 0 0
0.093798 0.12773 0.015017 1 255 0 0
0.23116 0.13485 0.020996 19 0 0 255
0.17668 0.12193 0.0069834 19 0 0 255
0.21873 0.13441 0.014912 19 0 0 255
0.050521 0.11828 0.017738 1 255 0 0
0.19957 0.13489 0.0081316 19 0 0 255
0.14998 0.12913 0.018307 1 255 0 0
0.0091938 0.11747 0.0035982 1 255 0 0
0.036436 0.13649 0.012081 1 255 0 0
0.16959 0.126 0.010021 19 0 0 255
0.07694 0.12076 0.020163 1 255 0 0
0.0077836 0.11919 0.0092682 1 255 0 0
0.084272 0.12515 0.014391 1 255 0 0
0.012199 0.12227 0.00038109 1 255 0 0
0.10812 0.12795 0.022588 1 255 0 0
0.013269 0.11807 0.0096455 1 255 0 0
0.081901 0.12304 0.021577 1 255 0 0
0.016342 0.1275 0.00027555 1 255 0 0
0.087222 0.13189 0.020114 1 255 0 0
0.016718 0.11699 0.0045431 1 255 0 0
0.071456 0.13 0.0073164 1 255 0 0
0.082518 0.11993 0.019191 1 255 0 0
0.12634 0.12492 0.018854 1 255 0 0
0.17098 0.13618 0.0092673 19 0 0 255
0.21724 0.1177 0.014396 19 0 0 255
0.079824 0.12636 0.022224 1 255 0 0
0.037546 0.11753 0.0070197 1 255 0 0
0.13704 0.12749 0.017789 1 255 0 0
0.05614 0.13533 0.014362 1 255 0 0
0.013813 0.1341 0.018298 1 255 0 0
0.059812 0.12057 0.014393 1 255 0 0
0.034391 0.1188 0.012689 1 255 0 0
0.05243 0.13212 0.0061345 1 255 0 0
0.01834 0.12292 0.02054 1 255 0 0
0.031362 0.11738 0.0062592 1 255 0 0
0.055606 0.13536 0.012099 1 255 0 0
0.014062 0.11619 0.015587 1 255 0 0
0.22868 0.11766 0.017975 19 0 0 255
0.019224 0.13226 0.019555 1 255 0 0
0.0038975 0.13068 0.017365 1 255 0 0
0.00091586 0.12542 0.014773 1 255 0 0
0.023883 0.12969 0.010287 1 255 0 0
0.010328 0.11523 0.0069161 1 255 0 0
0.17379 0.12702 0.0080317 19 0 0 255
0.21789 0.11661 0.01294 19 0 0 255
0.016968 0.13729 0.0078647 1 255 0 0
0.086719 0.12123 0.010124 1 255 0 0
0.091006 0.12501 0.0089667 1 255 0 0
0.082248 0.13203 0.020009 1 255 0 0
0.11453 0.12874 0.018033 1 255 0 0
0.082824 0.13105 0.020807 1 255 0 0
0.18758 0.13034 0.0065806 19 0 0 255
0.0017387 0.13187 0.01327 1 255 0 0
0.034977 0.11678 0.015584 1 255 0 0
0.068051 0.1346 0.012631 1 255 0 0
0.013574 0.1243 0.020736 1 255 0 0
0.031609 0.12828 0.0021295 1 255 0 0
0.076387 0.11981 0.010172 1 255 0 0
0.025686 0.11692 0.0059881 1 255 0 0
0.062431 0.11828 0.01706 1 255 0 0
0.090761 0.12689 0.016441 1 255 0 0
0.058408 0.12311 0.012659 1 255 0 0
0.087549 0.12053 0.016265 1 255 0 0
0.10127 0.12974 0.017132 1 255 0 0
0.11321 0.12778 0.011544 1 255 0 0
0.091812 0.13156 0.014859 1 255 0 0
0.041136 0.13156 0.013062 1 255 0 0
0.068764 0.12353 0.013355 1 255 0 0
0.06449 0.12062 0.013085 1 255 0 0
0.013097 0.12903 6.1299e-05 1 255 0 0
0.12239 0.12169 0.020551 1 255 0 0
0.22807 0.12234 0.018438 19 0 0 255
0.020202 0.13741 0.010588 1 255 0 0
0.019823 0.11661 0.010097 1 255 0 0
0.11443 0.12546 0.022793 1 255 0 0
0.17239 0.13333 0.010418 19 0 0 255
0.056186 0.11888 0.0082314 1 255 0 0
0.034284 0.12095 0.0035632 1 255 0 0
0.020665 0.12209 0.001462 1 255 0 0
0.04646 0.1305 0.0045044 1 255 0 0
0.043528 0.12791 0.003473 1 255 0 0
0.031609 0.13021 0.010805 1 255 0 0
0.035186 0.11633 0.013987 1 255 0 0
0.070666 0.13172 0.013431 1 255 0 0
0.0067048 0.13014 0.0011612 1 255 0 0
0.19264 0.1349 0.00501 19 0 0 255
0.17457 0.1331 0.0076361 19 0 0 255
0.021167 0.13609 0.010062 1 255 0 0
0.038157 0.12638 0.011271 1 255 0 0
0.17898 0.11114 0.0076875 19 0 0 255
0.13713 0.12955 0.017776 1 255 0 0
0.1759 0.12044 0.0089441 19 0 0 255
0.20986 0.13853 0.0096827 19 0 0 255
0.20024 0.11753 0.0084314 19 0 0 255
0.015422 0.11593 0.014985 1 255 0 0
0.20411 0.11277 0.0086133 19 0 0 255
0.13744 0.12488 0.017805 1 255 0 0
0.097499 0.13068 0.015248 1 255 0 0
0.10843 0.13198 0.014173 1 255 0 0
0.10936 0.12141 0.017731 1 255 0 0
0.01628 0.1317 0.0097609 1 255 0 0
0.14609 0.12258 0.017303 1 255 0 0
0.16102 0.13331 0.015402 19 0 0 255
0.11112 0.13113 0.016164 1 255 0 0
0.10141 0.12391 0.022184 1 255 0 0
0.039702 0.1207 0.0044224 1 255 0 0
0.18851 0.14109 0.005648 19 0 0 255
0.042147 0.12037 0.019698 1 255 0 0
0.053614 0.12807 0.0046597 1 255 0 0
0.049378 0.11902 0.0070741 1 255 0 0
0.1751 0.14101 0.0073701 19 0 0 255
0.086886 0.13109 0.014529 1 255 0 0
0.0032148 0.13168 0.016006 1 255 0 0
0.15318 0.12384 0.017702 1 255 0 0
0.075446 0.12053 0.0092119 1 255 0 0
0.20464 0.1179 0.0094025 19 0 0 255
0.20886 0.11679 0.01117 19 0 0 255
0.078076 0.11893 0.014013 1 255 0 0
0.056955 0.11862 0.018044 1 255 0 0
0.08263 0.1314 0.01424 1 255 0 0
0.018366 0.13105 0.0013395 1 255 0 0
0.038354 0.12972 0.0032645 1 255 0 0
0.0083857 0.11536 0.012219 1 255 0 0
0.098384 0.12246 0.010809 1 255 0 0
0.060665 0.11787 0.01085 1 255 0 0
0.074997 0.12001 0.015422 1 255 0 0
0.044467 0.12974 0.020953 1 255 0 0
0.10658 0.12154 0.015919 1 255 0 0
0.1744 0.11919 0.0078037 19 0 0 255
0.015421 0.12214 0.0097645 1 255 0 0
0.12855 0.1233 0.019014 1 255 0 0
0.16011 0.1267 0.015756 1 255 0 0
0.20264 0.1126 0.0080127 19 0 0 255
0.035375 0.12396 0.011099 1 255 0 0
0.11794 0.12348 0.022244 1 255 0 0
0.024654 0.11559 0.0098326 1 255 0 0
0.00773 0.11843 0.017431 1 255 0 0
0.039805 0.12793 0.012996 1 255 0 0
0.12393 0.13113 0.01542 1 255 0 0
0.038608 0.13153 0.003988 1 255 0 0
0.048575 0.13233 0.0057802 1 255 0 0
0.19871 0.12107 0.0063062 19 0 0 255
0.069252 0.12326 0.0068641 1 255 0 0
0.079859 0.12973 0.014064 1 255 0 0
0.09243 0.12047 0.019674 1 255 0 0
0.042483 0.11678 0.0098421 1 255 0 0
0.14508 0.12772 0.019006 1 255 0 0
0.011384 0.1177 0.017533 1 255 0 0
0.0051052 0.13127 0.010633 1 255 0 0
0.041967 0.13395 0.0062897 1 255 0 0
0.048924 0.12883 0.011982 1 255 0 0
0.053507 0.11744 0.010363 1 255 0 0
0.17723 0.13589 0.0084192 19 0 0 255
0.011788 0.12025 0.019406 1 255 0 0
0.02065 0.13138 0.010058 1 255 0 0
0.044406 0.12916 0.0037921 1 255 0 0
0.01587 0.13203 0.019681 1 255 0 0
0.19574 0.13494 0.0071679 19 0 0 255
0.11331 0.12899 0.016326 1 255 0 0
0.033704 0.11674 0.0079367 1 255 0 0
0.047953 0.12949 0.021095 1 255 0 0
0.078911 0.12198 0.0086192 1 255 0 0
0.10066 0.12743 0.015482 1 255 0 0
0.03976 0.12122 0.020231 1 255 0 0
0.11531 0.12949 0.012466 1 255 0 0
0.16945 0.11673 0.010151 19 0 0 255
0.032668 0.1232 0.020862 1 255 0 0
0.072183 0.12437 0.021868 1 255 0 0
0.02246 0.12843 0.0010835 1 255 0 0
0.058775 0.13522 0.013306 1 255 0 0
0.018773 0.13534 0.01702 1 255 0 0
0.18059 0.11455 0.0075803 19 0 0 255
0.074428 0.11914 0.01812 1 255 0 0
0.035173 0.13014 0.012669 1 255 0 0
0.18786 0.12353 0.004983 19 0 0 255
0.11419 0.13025 0.012818 1 255 0 0
0.085622 0.11925 0.017603 1 255 0 0
0.1837 0.11837 0.0069592 19 0 0 255
0.010984 0.13768 0.012314 1 255 0 0
0.031328 0.13631 0.008226 1 255 0 0
0.03074 0.13604 0.015506 1 255 0 0
0.21907 0.13768 0.014157 19 0 0 255
0.091002 0.11944 0.016505 1 255 0 0
0.057161 0.12791 0.021615 1 255 0 0
0.082281 0.13364 0.0126 1 255 0 0
0.034454 0.12215 0.011049 1 255 0 0
0.10469 0.13237 0.014253 1 255 0 0
0.052502 0.11812 0.013916 1 255 0 0
0.016298 0.13473 0.0034109 1 255 0 0
0.026299 0.13079 0.020291 1 255 0 0
0.082269 0.11892 0.013442 1 255 0 0
0.058692 0.11928 0.014326 1 255 0 0
0.12437 0.1276 0.012819 1 255 0 0
0.11316 0.13195 0.019219 1 255 0 0
0.10886 0.12566 0.016047 1 255 0 0
0.029957 0.12044 0.012379 1 255 0 0
0.088676 0.1319 0.020084 1 255 0 0
0.058456 0.12981 0.0056966 1 255 0 0
0.046379 0.12084 0.011862 1 255 0 0
0.038834 0.11882 0.018457 1 255 0 0
0.058749 0.13515 0.014749 1 255 0 0
0.0060532 0.12135 0.018545 1 255 0 0
0.16113 0.1339 0.013651 1 255 0 0
0.073348 0.11904 0.010874 1 255 0 0
0.11074 0.13126 0.020555 1 255 0 0
0.026329 0.11712 0.010533 1 255 0 0
0.007642 0.12088 0.019056 1 255 0 0
0.013626 0.13741 0.013578 1 255 0 0
0.066635 0.1318 0.020197 1 255 0 0
0.0039555 0.13501 0.0093677 1 255 0 0
0.21819 0.13448 0.012945 19 0 0 255
0.028409 0.1331 0.012194 1 255 0 0
0.11313 0.12206 0.01305 1 255 0 0
0.0043304 0.11802 0.0090427 1 255 0 0
0.14543 0.12434 0.018995 1 255 0 0
0.20683 0.11656 0.0087805 19 0 0 255
0.22015 0.13076 0.014403 19 0 0 255
0.11094 0.13227 0.017478 1 255 0 0
0.11247 0.13131 0.020474 1 255 0 0
0.086009 0.12672 0.022309 1 255 0 0
0.045798 0.12379 0.0038612 1 255 0 0
0.030172 0.13355 0.018783 1 255 0 0
0.044214 0.13214 0.011643 1 255 0 0
0.13937 0.12382 0.017803 1 255 0 0
0.030502 0.13669 0.013194 1 255 0 0
0.021632 0.11762 0.0045538 1 255 0 0
0.011118 0.11841 0.002388 1 255 0 0
0.062173 0.12 0.014556 1 255 0 0
0.066987 0.13401 0.01763 1 255 0 0
0.10743 0.13219 0.019058 1 255 0 0
0.17642 0.14141 0.0069784 19 0 0 255
0.20239 0.13855 0.0072248 19 0 0 255
0.13833 0.12368 0.01943 1 255 0 0
0.17855 0.12941 0.0063378 19 0 0 255
0.18458 0.11351 0.0052425 19 0 0 255
0.085784 0.13015 0.009126 1 255 0 0
0.07356 0.13055 0.0078173 1 255 0 0
0.1049 0.12758 0.015768 1 255 0 0
0.072227 0.1202 0.019603 1 255 0 0
0.062325 0.1221 0.020948 1 255 0 0
0.17374 0.1179 0.0081153 19 0 0 255
0.062533 0.12726 0.012911 1 255 0 0
0.031351 0.1316 0.010779 1 255 0 0
0.059411 0.12517 0.014337 1 255 0 0
0.026395 0.12611 0.021172 1 255 0 0
0.060007 0.11776 0.012801 1 255 0 0
0.16977 0.11523 0.011814 19 0 0 255
0.019511 0.12619 0.021049 1 255 0 0
0.22324 0.12795 0.01585 19 0 0 255
0.14405 0.12565 0.017492 1 255 0 0
0.087096 0.13055 0.0095528 1 255 0 0
0.076972 0.12557 0.013896 1 255 0 0
0.030517 0.1221 0.020448 1 255 0 0
0.10028 0.12021 0.01882 1 255 0 0
0.028157 0.13005 0.0021631 1 255 0 0
0.024739 0.12634 0.010366 1 255 0 0
0.023703 0.13586 0.011858 1 255 0 0
0.16504 0.12388 0.012183 19 0 0 255
0.039165 0.12512 0.012971 1 255 0 0
0.21128 0.11677 0.012051 19 0 0 255
0.22341 0.1247 0.016483 19 0 0 255
0.055348 0.12394 0.0049523 1 255 0 0
0.2159 0.12208 0.012092 19 0 0 255
0.15419 0.13118 0.015875 1 255 0 0
0.028653 0.13675 0.013375 1 255 0 0
0.098286 0.12974 0.01693 1 255 0 0
0.20353 0.13984 0.0075683 19 0 0 255
0.075532 0.12219 0.021111 1 255 0 0
0.012689 0.13334 0.018794 1 255 0 0
0.0047947 0.13502 0.013882 1 255 0 0
0.11665 0.13061 0.021217 1 255 0 0
0.008176 0.11882 0.002587 1 255 0 0
0.20546 0.13463 0.0092102 19 0 0 255
0.083914 0.12731 0.0080948 1 255 0 0
0.056782 0.12695 0.0049088 1 255 0 0
0.11472 0.13129 0.01397 1 255 0 0
0.18327 0.13378 0.0052931 19 0 0 255
0.010569 0.13611 0.0093472 1 255 0 0
0.057348 0.11966 0.0075224 1 255 0 0
0.12872 0.12451 0.015644 1 255 0 0
0.22729 0.12884 0.017209 19 0 0 255
0.043036 0.11914 0.01327 1 255 0 0
0.22396 0.1351 0.015521 19 0 0 255
0.17818 0.1346 0.0081246 19 0 0 255
0.0093681 0.12809 -2.3864e-05 1 255 0 0
0.026509 0.13072 0.0021968 1 255 0 0
0.1901 0.1176 0.0050192 19 0 0 255
0.1812 0.12309 0.0057604 19 0 0 255
0.095681 0.12767 0.015145 1 255 0 0
0.14661 0.12315 0.01886 1 255 0 0
0.14837 0.1302 0.016926 1 255 0 0
0.1617 0.12603 0.015216 1 255 0 0
0.0092664 0.11912 0.0093686 1 255 0 0
0.12559 0.12741 0.018788 1 255 0 0
0.050076 0.12913 0.0044602 1 255 0 0
0.18344 0.11946 0.0053539 19 0 0 255
0.06355 0.11781 0.01304 1 255 0 0
0.051403 0.12719 0.0043099 1 255 0 0
0.04018 0.11838 0.011459 1 255 0 0
0.21084 0.12378 0.010137 19 0 0 255
0.098997 0.13035 0.010938 1 255 0 0
0.057834 0.12153 0.01263 1 255 0 0
0.075535 0.12671 0.013791 1 255 0 0
0.095358 0.12584 0.016758 1 255 0 0
0.037357 0.12752 0.0027161 1 255 0 0
0.055373 0.12207 0.00563 1 255 0 0
0.11156 0.12251 0.01247 1 255 0 0
0.11131 0.12215 0.016235 1 255 0 0
0.16855 0.11923 0.012405 19 0 0 255
0.014249 0.11879 0.018484 1 255 0 0
0.048812 0.12259 0.020903 1 255 0 0
0.053888 0.12055 0.013994 1 255 0 0
0.19957 0.11483 0.0065873 19 0 0 255
0.0097691 0.13367 0.0020942 1 255 0 0
0.063102 0.11793 0.011483 1 255 0 0
0.0053214 0.11923 0.00381 1 255 0 0
0.069678 0.12915 0.015004 1 255 0 0
0.013597 0.11518 0.013086 1 255 0 0
0.033186 0.13247 0.010897 1 255 0 0
0.021105 0.1342 0.0035193 1 255 0 0
0.072338 0.12266 0.015225 1 255 0 0
0.06105 0.1187 0.017989 1 255 0 0
0.07998 0.13376 0.017383 1 255 0 0
0.22107 0.13736 0.014384 19 0 0 255
0.16418 0.12969 0.012504 19 0 0 255
0.018348 0.1178 0.017562 1 255 0 0
0.064705 0.13437 0.014635 1 255 0 0
0.11964 0.12193 0.016798 1 255 0 0
0.078183 0.12383 0.013989 1 255 0 0
0.17504 0.11631 0.0093073 19 0 0 255
0.11043 0.13178 0.014156 1 255 0 0
0.045729 0.13368 0.013359 1 255 0 0
0.21958 0.1224 0.015372 19 0 0 255
0.19968 0.13986 0.0064575 19 0 0 255
0.0043011 0.11729 0.010256 1 255 0 0
0.096906 0.13278 0.013606 1 255 0 0
0.014107 0.11855 0.0025626 1 255 0 0
0.03916 0.12696 0.0028655 1 255 0 0
0.18825 0.12164 0.0065954 19 0 0 255
0.095138 0.13007 0.010267 1 255 0 0
0.0096472 0.1303 0.00044572 1 255 0 0
0.18515 0.12296 0.0051472 19 0 0 255
0.025053 0.11621 0.012076 1 255 0 0
0.066289 0.12538 0.021861 1 255 0 0
0.17852 0.1331 0.008023 19 0 0 255
0.045123 0.11896 0.011789 1 255 0 0
0.064721 0.12274 0.021205 1 255 0 0
0.093109 0.13067 0.014952 1 255 0 0
0.021796 0.13398 0.011742 1 255 0 0
0.083937 0.12296 0.0087337 1 255 0 0
0.16704 0.12294 0.01129 19 0 0 255
0.020827 0.1306 0.020274 1 255 0 0
0.1651 0.12192 0.01217 19 0 0 255
0.015122 0.11641 0.0049919 1 255 0 0
0.041772 0.13074 0.020552 1 255 0 0
0.16608 0.11543 0.013545 19 0 0 255
0.14789 0.13044 0.018605 1 255 0 0
0.082519 0.11951 0.011683 1 255 0 0
0.15762 0.12892 0.016515 1 255 0 0
0.10232 0.12347 0.01075 1 255 0 0
0.077826 0.1268 0.015569 1 255 0 0
0.029701 0.1184 0.0048596 1 255 0 0
0.222 0.12837 0.016429 19 0 0 255
0.11629 0.13114 0.018136 1 255 0 0
0.04838 0.1349 0.0086266 1 255 0 0
0.20171 0.13815 0.0087123 19 0 0 255
0.16205 0.12017 0.015136 19 0 0 255
0.03666 0.13051 0.011144 1 255 0 0
0.22063 0.12865 0.015807 19 0 0 255
0.054135 0.11731 0.011588 1 255 0 0
0.099108 0.12755 0.015377 1 255 0 0
0.19392 0.1206 0.0057797 19 0 0 255
0.10836 0.12053 0.018996 1 255 0 0
0.028383 0.13605 0.01055 1 255 0 0
0.03391 0.13633 0.014555 1 255 0 0
0.030696 0.13233 0.012353 1 255 0 0
0.16806 0.13696 0.01252 19 0 0 255
0.018093 0.11687 0.011602 1 255 0 0
0.16269 0.13193 0.013075 19 0 0 255
0.096659 0.13076 0.010907 1 255 0 0
0.19568 0.12067 0.0067969 19 0 0 255
0.23004 0.13023 0.018951 19 0 0 255
0.11408 0.12521 0.011624 1 255 0 0
0.076387 0.13046 0.013825 1 255 0 0
0.11702 0.12951 0.02207 1 255 0 0
0.14397 0.12271 0.017518 1 255 0 0
0.013778 0.12098 0.0010358 1 255 0 0
0.035484 0.12196 0.0032836 1 255 0 0
0.12769 0.12528 0.021342 1 255 0 0
0.040554 0.13357 0.011387 1 255 0 0
0.15219 0.12209 0.016281 1 255 0 0
0.079516 0.13207 0.0096955 1 255 0 0
0.069295 0.12938 0.013353 1 255 0 0
0.063943 0.12399 0.01465 1 255 0 0
0.16434 0.12654 0.012462 19 0 0 255
0.043149 0.13286 0.019332 1 255 0 0
0.11496 0.12914 0.016436 1 255 0 0
0.077964 0.13213 0.019949 1 255 0 0
0.070972 0.1225 0.0073438 1 255 0 0
0.058681 0.1294 0.021298 1 255 0 0
0.1326 0.12166 0.018815 1 255 0 0
0.18183 0.13615 0.0072049 19 0 0 255
0.019707 0.13674 0.014705 1 255 0 0
0.19061 0.1216 0.0049942 19 0 0 255
0.067213 0.13474 0.014101 1 255 0 0
0.015509 0.13672 0.006034 1 255 0 0
0.0018388 0.12274 0.0088441 1 255 0 0
0.038903 0.13561 0.011262 1 255 0 0
0.10609 0.12749 0.022603 1 255 0 0
0.078334 0.12387 0.021807 1 255 0 0
0.096941 0.13032 0.016836 1 255 0 0
0.077138 0.13226 0.0095619 1 255 0 0
0.12419 0.12614 0.017078 1 255 0 0
0.034359 0.11663 0.012701 1 255 0 0
0.0046957 0.13372 0.010589 1 255 0 0
0.10235 0.12795 0.015593 1 255 0 0
0.023696 0.13503 0.017305 1 255 0 0
0.03566 0.13455 0.017715 1 255 0 0
0.10244 0.13268 0.017695 1 255 0 0
0.18409 0.12181 0.0052188 19 0 0 255
0.040371 0.11835 0.01793 1 255 0 0
0.19926 0.12154 0.0081311 19 0 0 255
0.098169 0.13176 0.020135 1 255 0 0
0.0079211 0.13089 0.0092021 1 255 0 0
0.061445 0.12794 0.005555 1 255 0 0
0.040951 0.11713 0.008544 1 255 0 0
0.084471 0.13237 0.014358 1 255 0 0
0.017027 0.12944 0.011449 1 255 0 0
0.094145 0.12595 0.022455 1 255 0 0
0.049511 0.12139 0.020407 1 255 0 0
0.035488 0.13632 0.014139 1 255 0 0
0.070964 0.12855 0.013471 1 255 0 0
0.20319 0.13724 0.0091652 19 0 0 255
0.057622 0.13519 0.011927 1 255 0 0
0.095315 0.12914 0.015111 1 255 0 0
0.11058 0.12275 0.017805 1 255 0 0
0.082846 0.12633 0.022278 1 255 0 0
0.071291 0.1257 0.015135 1 255 0 0
0.057086 0.12846 0.0051039 1 255 0 0
0.125 0.13028 0.017106 1 255 0 0
0.21844 0.11509 0.014904 19 0 0 255
0.043924 0.11735 0.0086542 1 255 0 0
0.21461 0.11443 0.013345 19 0 0 255
0.013681 0.13736 0.006997 1 255 0 0
0.076789 0.1329 0.019103 1 255 0 0
0.1738 0.11861 0.0098636 19 0 0 255
0.19352 0.13185 0.0051227 19 0 0 255
0.22198 0.11544 0.016502 19 0 0 255
0.07439 0.12147 0.015371 1 255 0 0
0.08535 0.12356 0.0086852 1 255 0 0
0.070188 0.12805 0.0065808 1 255 0 0
0.022642 0.13403 0.010175 1 255 0 0
0.083317 0.12604 0.015944 1 255 0 0
0.10864 0.12116 0.013412 1 255 0 0
0.042354 0.12261 0.0038753 1 255 0 0
0.062281 0.12098 0.012934 1 255 0 0
0.16554 0.13058 0.011915 19 0 0 255
0.031325 0.13556 0.0067084 1 255 0 0
0.19258 0.11341 0.0067673 19 0 0 255
0.036313 0.12584 0.01115 1 255 0 0
0.039018 0.12166 0.012983 1 255 0 0
0.039813 0.12369 0.013024 1 255 0 0
0.1093 0.12199 0.0161 1 255 0 0
0.14268 0.12524 0.019253 1 255 0 0
0.089557 0.12165 0.020864 1 255 0 0
0.20095 0.13877 0.0068189 19 0 0 255
0.18498 0.11794 0.0051895 19 0 0 255
0.0062525 0.11778 0.015779 1 255 0 0
0.11997 0.1306 0.013974 1 255 0 0
0.20264 0.12247 0.0090847 19 0 0 255
0.019767 0.12954 0.01001 1 255 0 0
0.15212 0.13066 0.016934 1 255 0 0
0.22562 0.1222 0.017931 19 0 0 255
0.15849 0.12072 0.014631 19 0 0 255
0.16274 0.11888 0.01488 19 0 0 255
0.16547 0.13204 0.01194 19 0 0 255
0.010193 0.12408 0.0093993 1 255 0 0
0.0058731 0.1198 0.017462 1 255 0 0
0.043635 0.12028 0.01168 1 255 0 0
0.14897 0.12299 0.018523 1 255 0 0
0.0035079 0.12051 0.01601 1 255 0 0
0.084513 0.12196 0.021025 1 255 0 0
0.029223 0.13234 0.019572 1 255 0 0
0.22586 0.1284 0.016501 19 0 0 255
0.16476 0.13703 0.01255 19 0 0 255
0.083641 0.12572 0.008027 1 255 0 0
0.16673 0.13108 0.011379 19 0 0 255
0.17494 0.14135 0.0087058 19 0 0 255
0.0026917 0.13186 0.010466 1 255 0 0
0.038399 0.11698 0.0083648 1 255 0 0
0.21442 0.12153 0.011504 19 0 0 255
0.17983 0.11897 0.0060493 19 0 0 255
0.0052715 0.13232 0.017437 1 255 0 0
0.0047619 0.12259 0.010666 1 255 0 0
0.17891 0.13894 0.0061599 19 0 0 255
0.062548 0.1253 0.005627 1 255 0 0
0.10924 0.13175 0.019851 1 255 0 0
0.092928 0.11974 0.013246 1 255 0 0
0.025495 0.12553 0.0012956 1 255 0 0
0.05621 0.11911 0.012536 1 255 0 0
0.18148 0.11909 0.0073804 19 0 0 255
0.19635 0.11223 0.0074299 19 0 0 255
0.067002 0.12471 0.013229 1 255 0 0
0.020319 0.12433 0.010081 1 255 0 0
0.064261 0.1203 0.019795 1 255 0 0
0.069875 0.13427 0.016913 1 255 0 0
0.0052886 0.13141 0.002386 1 255 0 0
0.18731 0.12032 0.0059721 19 0 0 255
0.22999 0.13345 0.019273 19 0 0 255
0.16536 0.13588 0.011961 19 0 0 255
0.12951 0.13009 0.019717 1 255 0 0
0.1787 0.12838 0.007997 19 0 0 255
0.096375 0.12691 0.022485 1 255 0 0
0.072022 0.13245 0.015141 1 255 0 0
0.042811 0.1359 0.010072 1 255 0 0
0.0063407 0.11641 0.0071178 1 255 0 0
0.027307 0.11955 0.0035967 1 255 0 0
0.046573 0.12284 0.020957 1 255 0 0
0.0016531 0.1208 0.0074671 1 255 0 0
0.026902 0.12263 0.012159 1 255 0 0
0.013126 0.13399 0.011157 1 255 0 0
0.22293 0.13062 0.016791 19 0 0 255
0.024861 0.12077 0.019832 1 255 0 0
0.054797 0.12841 0.012381 1 255 0 0
0.17269 0.11887 0.0085914 19 0 0 255
0.20277 0.13909 0.0090179 19 0 0 255
0.08499 0.12768 0.022176 1 255 0 0
0.12651 0.1265 0.017232 1 255 0 0
0.18995 0.12477 0.0065619 19 0 0 255
0.043373 0.11749 0.013304 1 255 0 0
0.21829 0.12324 0.014788 19 0 0 255
0.099308 0.13106 0.020907 1 255 0 0
0.063972 0.13208 0.0146 1 255 0 0
0.031178 0.11932 0.010846 1 255 0 0
0.046743 0.1315 0.020254 1 255 0 0
0.10994 0.12492 0.02265 1 255 0 0
0.06057 0.11962 0.019094 1 255 0 0
0.093121 0.125 0.016612 1 255 0 0
0.091412 0.1206 0.01149 1 255 0 0
0.085345 0.13291 0.016037 1 255 0 0
0.041182 0.11663 0.010308 1 255 0 0
0.025152 0.11856 0.018324 1 255 0 0
0.040836 0.12219 0.020642 1 255 0 0
0.20179 0.12783 0.0086828 19 0 0 255
0.16876 0.13777 0.010363 19 0 0 255
0.045611 0.12818 0.013386 1 255 0 0
0.16557 0.11714 0.013763 19 0 0 255
0.093354 0.12434 0.022206 1 255 0 0
0.20044 0.12781 0.0080421 19 0 0 255
0.028563 0.1254 0.0016666 1 255 0 0
0.18062 0.12127 0.0075314 19 0 0 255
0.22787 0.12807 0.019285 19 0 0 255
0.16515 0.12531 0.012124 19 0 0 255
0.22841 0.12456 0.017797 19 0 0 255
0.031326 0.12632 0.0018889 1 255 0 0
0.16024 0.13143 0.015679 19 0 0 255
0.21146 0.1279 0.010538 19 0 0 255
0.16094 0.12748 0.013754 1 255 0 0
0.057417 0.12007 0.014235 1 255 0 0
0.045716 0.12764 0.011773 1 255 0 0
0.1712 0.12235 0.0092551 19 0 0 255
0.11056 0.12746 0.022692 1 255 0 0
0.0811 0.12901 0.015775 1 255 0 0
0.20068 0.1158 0.0085656 19 0 0 255
0.19254 0.12339 0.0050794 19 0 0 255
0.053078 0.11942 0.012323 1 255 0 0
0.19328 0.12849 0.0067457 19 0 0 255
0.088085 0.12969 0.0091932 1 255 0 0
0.17659 0.11477 0.0087604 19 0 0 255
0.17705 0.13205 0.0085019 19 0 0 255
0.020898 0.12036 0.01954 1 255 0 0
0.1815 0.13106 0.0056517 19 0 0 255
0.16924 0.11516 0.010266 19 0 0 255
0.027152 0.12095 0.002651 1 255 0 0
0.037447 0.13576 0.012786 1 255 0 0
0.15652 0.12155 0.015194 19 0 0 255
0.087066 0.12057 0.014609 1 255 0 0
0.032978 0.119 0.018716 1 255 0 0
0.21598 0.12396 0.012113 19 0 0 255
0.18512 0.11426 0.0068285 19 0 0 255
0.14651 0.12827 0.017206 1 255 0 0
0.19513 0.11188 0.0069899 19 0 0 255
0.18348 0.12647 0.0069498 19 0 0 255
0.04211 0.12616 0.01154 1 255 0 0
0.034049 0.12324 0.0026498 1 255 0 0
0.030628 0.12665 0.012385 1 255 0 0
0.20423 0.12115 0.009604 19 0 0 255
0.082341 0.13009 0.015852 1 255 0 0
0.010144 0.13618 0.016003 1 255 0 0
0.17889 0.13734 0.0061777 19 0 0 255
0.080347 0.12718 0.0076671 1 255 0 0
0.053381 0.13547 0.01224 1 255 0 0
0.044437 0.13594 0.013902 1 255 0 0
0.05409 0.1214 0.0058133 1 255 0 0
0.083964 0.12127 0.0097442 1 255 0 0
0.0048668 0.13489 0.0061632 1 255 0 0
0.17435 0.12081 0.0078132 19 0 0 255
0.030287 0.13546 0.012305 1 255 0 0
0.091154 0.12141 0.016503 1 255 0 0
0.21315 0.1369 0.012605 19 0 0 255
0.013481 0.12966 0.020495 1 255 0 0
0.076205 0.11865 0.016626 1 255 0 0
0.00015635 0.12554 0.0079412 1 255 0 0
0.18303 0.11331 0.007121 19 0 0 255
0.0013507 0.12849 0.0087742 1 255 0 0
0.11137 0.12531 0.022719 1 255 0 0
0.074771 0.12286 0.015388 1 255 0 0
0.1128 0.12547 0.022763 1 255 0 0
0.071473 0.12692 0.013516 1 255 0 0
0.16822 0.13146 0.012485 19 0 0 255
0.18815 0.11462 0.0050172 19 0 0 255
0.19202 0.11742 0.0067131 19 0 0 255
0.044827 0.13577 0.011661 1 255 0 0
0.065269 0.11824 0.016829 1 255 0 0
0.058868 0.12097 0.020203 1 255 0 0
0.056907 0.13056 0.01251 1 255 0 0
0.072629 0.12001 0.009392 1 255 0 0
0.14387 0.1244 0.019144 1 255 0 0
0.039371 0.12958 0.011333 1 255 0 0
0.20701 0.11313 0.0092443 19 0 0 255
0.1087 0.12286 0.021776 1 255 0 0
0.03015 0.12241 0.010757 1 255 0 0
0.060081 0.12251 0.014399 1 255 0 0
0.081645 0.13381 0.016624 1 255 0 0
0.0063189 0.11652 0.013587 1 255 0 0
0.057697 0.12586 0.012593 1 255 0 0
0.074913 0.11855 0.015425 1 255 0 0
0.045724 0.13494 0.0081971 1 255 0 0
0.02406 0.12212 0.020353 1 255 0 0
0.1674 0.1209 0.012917 19 0 0 255
0.068818 0.12597 0.006275 1 255 0 0
0.14973 0.12464 0.016736 1 255 0 0
0.031059 0.11842 0.0050484 1 255 0 0
0.010542 0.13009 0.0093841 1 255 0 0
0.16125 0.132 0.013621 1 255 0 0
0.17491 0.13899 0.0074421 19 0 0 255
0.043769 0.12704 0.021461 1 255 0 0
0.031391 0.12646 0.010814 1 255 0 0
0.031826 0.11592 0.011341 1 255 0 0
0.22097 0.12921 0.014206 19 0 0 255
0.05141 0.13001 0.0049236 1 255 0 0
0.066788 0.11881 0.017878 1 255 0 0
0.18704 0.11296 0.0050926 19 0 0 255
0.056109 0.12014 0.0069086 1 255 0 0
0.044887 0.11768 0.016834 1 255 0 0
0.20029 0.11234 0.0073925 19 0 0 255
0.056907 0.11799 0.016795 1 255 0 0
0.12741 0.12403 0.018932 1 255 0 0
0.18798 0.12776 0.0065733 19 0 0 255
0.16546 0.12896 0.011961 19 0 0 255
0.012904 0.11569 0.014649 1 255 0 0
0.23136 0.13538 0.01929 19 0 0 255
0.098437 0.12514 0.022453 1 255 0 0
0.051852 0.12547 0.012201 1 255 0 0
0.035218 0.12761 0.012688 1 255 0 0
0.01049 0.13655 0.0050827 1 255 0 0
0.069539 0.12681 0.015009 1 255 0 0
0.06041 0.12704 0.012769 1 255 0 0
0.12174 0.12302 0.01344 1 255 0 0
0.0039167 0.12924 0.0089426 1 255 0 0
0.10818 0.12404 0.017635 1 255 0 0
0.030485 0.11853 0.018235 1 255 0 0
0.11821 0.12495 0.022804 1 255 0 0
0.1386 0.12213 0.019439 1 255 0 0
0.12541 0.12558 0.017164 1 255 0 0
0.13635 0.12569 0.017802 1 255 0 0
0.069154 0.12502 0.013372 1 255 0 0
0.092206 0.13283 0.012802 1 255 0 0
0.17802 0.1185 0.0065772 19 0 0 255
0.17136 0.1379 0.0090825 19 0 0 255
0.1033 0.12 0.017057 1 255 0 0
0.22775 0.12427 0.01925 19 0 0 255
0.023784 0.1178 0.017506 1 255 0 0
0.15314 0.12711 0.017689 1 255 0 0
0.0095109 0.11924 0.0019948 1 255 0 0
0.21589 0.1152 0.012131 19 0 0 255
0.19223 0.13489 0.0063283 19 0 0 255
0.19797 0.12466 0.0077492 19 0 0 255
0.059846 0.12141 0.0065491 1 255 0 0
0.051186 0.12748 0.021551 1 255 0 0
0.12797 0.12533 0.014776 1 255 0 0
0.067146 0.13098 0.014821 1 255 0 0
0.0051416 0.13532 0.010609 1 255 0 0
0.067081 0.129 0.014829 1 255 0 0
0.11041 0.13053 0.017744 1 255 0 0
0.19939 0.11295 0.0065478 19 0 0 255
0.016115 0.12903 0.00041154 1 255 0 0
0.23209 0.12854 0.019731 19 0 0 255
0.10103 0.12929 0.010601 1 255 0 0
0.1543 0.13126 0.017347 1 255 0 0
0.21347 0.11434 0.011155 19 0 0 255
0.014241 0.13531 0.0096001 1 255 0 0
0.029406 0.13079 0.0025661 1 255 0 0
0.21855 0.13657 0.013079 19 0 0 255
0.11122 0.12589 0.016205 1 255 0 0
0.015031 0.11576 0.0097793 1 255 0 0
0.013105 0.12519 0.011212 1 255 0 0
0.15065 0.12222 0.017901 1 255 0 0
0.036009 0.12572 0.012754 1 255 0 0
0.20362 0.13127 0.0093436 19 0 0 255
0.079518 0.1281 0.022021 1 255 0 0
0.007937 0.11946 0.0109 1 255 0 0
0.0078335 0.12973 0.010827 1 255 0 0
0.071102 0.12469 0.0066929 1 255 0 0
0.17085 0.12727 0.011188 19 0 0 255
0.051492 0.12702 0.01379 1 255 0 0
0.037836 0.11639 0.010443 1 255 0 0
0.070988 0.12596 0.022012 1 255 0 0
0.031286 0.13084 0.020352 1 255 0 0
0.026113 0.11573 0.012883 1 255 0 0
0.065623 0.13357 0.009322 1 255 0 0
0.025775 0.12162 0.0022436 1 255 0 0
0.17632 0.13024 0.0070483 19 0 0 255
0.0079064 0.12816 0.0092187 1 255 0 0
0.0058866 0.12897 0.0011429 1 255 0 0
0.15457 0.1244 0.0157 1 255 0 0
0.097346 0.13284 0.018247 1 255 0 0
0.033509 0.13487 0.012526 1 255 0 0
0.17733 0.14004 0.0083618 19 0 0 255
0.043004 0.11976 0.0054735 1 255 0 0
0.11833 0.12235 0.016707 1 255 0 0
0.086715 0.11915 0.016716 1 255 0 0
0.19269 0.13639 0.005003 19 0 0 255
0.051841 0.13561 0.012193 1 255 0 0
0.067521 0.12663 0.0061206 1 255 0 0
0.046353 0.11842 0.0072994 1 255 0 0
0.024208 0.11645 0.0066851 1 255 0 0
0.098652 0.12351 0.016995 1 255 0 0
0.06067 0.13512 0.014131 1 255 0 0
0.043527 0.13372 0.0062627 1 255 0 0
0.18907 0.11612 0.0049518 19 0 0 255
0.0041677 0.11937 0.015682 1 255 0 0
0.12961 0.12802 0.016639 1 255 0 0
0.050188 0.13549 0.015114 1 255 0 0
0.060124 0.13023 0.021023 1 255 0 0
0.17573 0.11818 0.0073117 19 0 0 255
0.013284 0.13651 0.0095278 1 255 0 0
0.07308 0.1275 0.013621 1 255 0 0
0.0068325 0.1333 0.0027187 1 255 0 0
0.040432 0.13513 0.016839 1 255 0 0
0.029007 0.12374 0.010671 1 255 0 0
0.17363 0.13824 0.0098192 19 0 0 255
0.026146 0.11786 0.0049508 1 255 0 0
0.058509 0.13302 0.019168 1 255 0 0
0.025936 0.13527 0.0054115 1 255 0 0
0.2032 0.12837 0.009227 19 0 0 255
0.011379 0.13753 0.0072465 1 255 0 0
0.14604 0.12899 0.018905 1 255 0 0
0.077983 0.12958 0.021536 1 255 0 0
0.069808 0.11808 0.014022 1 255 0 0
0.22702 0.11852 0.017141 19 0 0 255
0.0033656 0.12469 0.0025982 1 255 0 0
0.028672 0.12558 0.01226 1 255 0 0
0.23028 0.12831 0.018746 19 0 0 255
0.09923 0.12114 0.020337 1 255 0 0
0.21569 0.1382 0.011971 19 0 0 255
0.17734 0.13556 0.0066856 19 0 0 255
0.19776 0.11489 0.0060802 19 0 0 255
0.11238 0.12142 0.017935 1 255 0 0
0.19362 0.13102 0.0067937 19 0 0 255
0.010999 0.1253 -0.00023394 1 255 0 0
0.17746 0.13904 0.0066257 19 0 0 255
0.11544 0.12603 0.016488 1 255 0 0
0.07706 0.1222 0.021129 1 255 0 0
0.11383 0.12328 0.016398 1 255 0 0
0.027525 0.13662 0.0081586 1 255 0 0
0.20156 0.13978 0.008659 19 0 0 255
0.19912 0.13723 0.0079905 19 0 0 255
0.12689 0.12239 0.018908 1 255 0 0
0.006081 0.11626 0.010795 1 255 0 0
0.21206 0.11785 0.012327 19 0 0 255
0.0089294 0.12395 0.020369 1 255 0 0
0.13435 0.12199 0.017753 1 255 0 0
0.046667 0.12815 0.021385 1 255 0 0
0.18097 0.12703 0.0074282 19 0 0 255
0.026735 0.11756 0.017218 1 255 0 0
0.051187 0.1255 0.0042827 1 255 0 0
0.016615 0.11618 0.005766 1 255 0 0
0.033866 0.12471 0.0023653 1 255 0 0
0.20804 0.13929 0.010499 19 0 0 255
0.061654 0.1282 0.014468 1 255 0 0
0.16742 0.13305 0.011056 19 0 0 255
0.15342 0.12279 0.015984 1 255 0 0
0.12491 0.12925 0.013541 1 255 0 0
0.0069003 0.1273 0.01078 1 255 0 0
0.055754 0.12086 0.020113 1 255 0 0
0.0048486 0.12749 0.0014834 1 255 0 0
0.065013 0.12253 0.0066179 1 255 0 0
0.020987 0.12701 0.021027 1 255 0 0
0.022461 0.13198 0.010176 1 255 0 0
0.085809 0.13202 0.019985 1 255 0 0
0.10128 0.12777 0.017145 1 255 0 0
0.074574 0.12062 0.020034 1 255 0 0
0.223 0.11877 0.015515 19 0 0 255
0.20534 0.13002 0.009906 19 0 0 255
0.036315 0.12583 0.0025158 1 255 0 0
0.18535 0.12105 0.0051472 19 0 0 255
0.028915 0.13251 0.010608 1 255 0 0
0.21388 0.11564 0.013038 19 0 0 255
0.0027692 0.12713 0.017317 1 255 0 0
0.13153 0.12609 0.019197 1 255 0 0
0.05639 0.1276 0.014117 1 255 0 0
0.0050168 0.11714 0.0074822 1 255 0 0
0.12484 0.12869 0.022587 1 255 0 0
0.21174 0.13119 0.011514 19 0 0 255
0.1967 0.13688 0.0056914 19 0 0 255
0.0029217 0.13397 0.010468 1 255 0 0
0.18992 0.12046 0.0053804 19 0 0 255
0.22453 0.12887 0.015833 19 0 0 255
0.14194 0.12218 0.018065 1 255 0 0
0.065782 0.12162 0.02067 1 255 0 0
0.051321 0.13531 0.015825 1 255 0 0
0.12101 0.13167 0.016593 1 255 0 0
0.13669 0.12247 0.019442 1 255 0 0
0.052724 0.13456 0.0173 1 255 0 0
0.12699 0.12959 0.014028 1 255 0 0
0.1828 0.12491 0.0054419 19 0 0 255
0.012022 0.13648 0.0048827 1 255 0 0
0.12023 0.1287 0.012687 1 255 0 0
0.022809 0.13724 0.011954 1 255 0 0
0.084878 0.13127 0.0097334 1 255 0 0
0.047518 0.12457 0.013538 1 255 0 0
0.019142 0.12435 0.020848 1 255 0 0
0.0035373 0.12288 0.0029661 1 255 0 0
0.00051697 0.12442 0.0069236 1 255 0 0
0.0055361 0.13188 0.0090348 1 255 0 0
0.17864 0.13061 0.0080019 19 0 0 255
0.17259 0.12919 0.0085709 19 0 0 255
0.074157 0.12729 0.0069608 1 255 0 0
0.11415 0.13208 0.016663 1 255 0 0
0.018717 0.1259 0.011586 1 255 0 0
0.16755 0.13779 0.010969 1 255 0 0
0.20895 0.13488 0.011083 19 0 0 255
0.11769 0.1317 0.015374 1 255 0 0
0.093913 0.12953 0.016637 1 255 0 0
0.013763 0.11983 0.0096675 1 255 0 0
0.098359 0.12654 0.022568 1 255 0 0
0.11212 0.1237 0.016279 1 255 0 0
0.010729 0.12581 0.0094243 1 255 0 0
0.039049 0.11741 0.013013 1 255 0 0
0.016857 0.13181 0.001421 1 255 0 0
0.11337 0.13192 0.014991 1 255 0 0
0.14552 0.12225 0.018916 1 255 0 0
0.084398 0.13268 0.011078 1 255 0 0
0.031861 0.13675 0.011507 1 255 0 0
0.10484 0.13171 0.01736 1 255 0 0
0.070786 0.11933 0.013518 1 255 0 0
0.12237 0.12681 0.022996 1 255 0 0
0.028805 0.12549 0.010646 1 255 0 0
0.087511 0.11974 0.018579 1 255 0 0
0.065909 0.12975 0.0065666 1 255 0 0
0.060516 0.12536 0.021748 1 255 0 0
0.017797 0.13621 0.015911 1 255 0 0
0.058997 0.13191 0.0068407 1 255 0 0
0.010714 0.13402 0.010994 1 255 0 0
0.12336 0.12927 0.018626 1 255 0 0
0.090943 0.13112 0.020822 1 255 0 0
0.048226 0.13256 0.019565 1 255 0 0
0.020201 0.11528 0.0099102 1 255 0 0
0.083625 0.11909 0.012932 1 255 0 0
0.052044 0.11826 0.0083458 1 255 0 0
0.017033 0.1198 0.019151 1 255 0 0
0.034034 0.11912 0.0047482 1 255 0 0
0.046556 0.11768 0.011894 1 255 0 0
0.071679 0.13251 0.019593 1 255 0 0
0.10657 0.12035 0.018402 1 255 0 0
0.078089 0.12162 0.01562 1 255 0 0
0.014715 0.11536 0.013867 1 255 0 0
0.17963 0.12156 0.0060701 19 0 0 255
0.053646 0.12803 0.021532 1 255 0 0
0.22601 0.13603 0.016525 19 0 0 255
0.1052 0.13143 0.015763 1 255 0 0
0.063908 0.13477 0.012955 1 255 0 0
0.025537 0.12314 0.012064 1 255 0 0
0.0082172 0.12415 0.0092655 1 255 0 0
0.17593 0.12332 0.0072149 19 0 0 255
0.1219 0.13028 0.01852 1 255 0 0
0.11731 0.12101 0.019413 1 255 0 0
0.22598 0.12917 0.018336 19 0 0 255
0.21849 0.13085 0.014074 19 0 0 255
0.026239 0.12025 0.01213 1 255 0 0
0.12063 0.13068 0.021087 1 255 0 0
0.18139 0.11249 0.0057918 19 0 0 255
0.017006 0.11811 0.017922 1 255 0 0
0.056408 0.1176 0.010639 1 255 0 0
0.049842 0.12778 0.0041922 1 255 0 0
0.083976 0.13208 0.01595 1 255 0 0
0.14366 0.12895 0.017508 1 255 0 0
0.090639 0.12032 0.019532 1 255 0 0
0.050348 0.13363 0.013671 1 255 0 0
0.024268 0.1198 0.012 1 255 0 0
0.22061 0.1168 0.015878 19 0 0 255
0.018443 0.12996 0.011541 1 255 0 0
0.11626 0.1257 0.011818 1 255 0 0
0.036443 0.13327 0.0048352 1 255 0 0
0.041373 0.11872 0.013161 1 255 0 0
0.12363 0.12227 0.014365 1 255 0 0
0.06274 0.12556 0.014559 1 255 0 0
0.048874 0.12106 0.0053666 1 255 0 0
0.19887 0.1174 0.0080476 19 0 0 255
0.0225 0.13065 0.011811 1 255 0 0
0.13833 0.12857 0.019398 1 255 0 0
0.15301 0.12981 0.017703 1 255 0 0
0.092293 0.12771 0.022312 1 255 0 0
0.18313 0.12737 0.0053617 19 0 0 255
0.1717 0.13194 0.0089631 19 0 0 255
0.061479 0.12334 0.02136 1 255 0 0
0.029533 0.11683 0.015995 1 255 0 0
0.10766 0.1219 0.012427 1 255 0 0
0.070445 0.13095 0.0076821 1 255 0 0
0.022021 0.11794 0.01768 1 255 0 0
0.1947 0.11394 0.0054614 19 0 0 255
0.022838 0.12 0.0027203 1 255 0 0
0.015809 0.11628 0.011452 1 255 0 0
0.2115 0.12995 0.010338 19 0 0 255
0.085026 0.1206 0.010551 1 255 0 0
0.098756 0.13105 0.016954 1 255 0 0
0.18769 0.1366 0.0049064 19 0 0 255
0.096194 0.13203 0.015151 1 255 0 0
0.077586 0.13158 0.013899 1 255 0 0
0.19058 0.12308 0.0049831 19 0 0 255
0.0051172 0.11769 0.014533 1 255 0 0
0.12436 0.12379 0.018728 1 255 0 0
0.081497 0.13138 0.0093731 1 255 0 0
0.059508 0.13391 0.0088119 1 255 0 0
0.21617 0.12957 0.012154 19 0 0 255
0.033565 0.13167 0.0034302 1 255 0 0
0.018774 0.13734 0.0089376 1 255 0 0
0.039014 0.1166 0.0095262 1 255 0 0
0.023605 0.12262 0.010314 1 255 0 0
0.10581 0.12629 0.01746 1 255 0 0
0.064842 0.12974 0.021272 1 255 0 0
0.14779 0.12879 0.017019 1 255 0 0
0.22608 0.13044 0.01788 19 0 0 255
0.064042 0.12932 0.0061922 1 255 0 0
0.21837 0.13609 0.014739 19 0 0 255
0.020807 0.1234 0.0010044 1 255 0 0
0.056774 0.1341 0.012478 1 255 0 0
0.023776 0.12424 0.011938 1 255 0 0
0.031286 0.11601 0.013173 1 255 0 0
0.089549 0.12785 0.022243 1 255 0 0
0.020646 0.11792 0.017677 1 255 0 0
0.12779 0.12831 0.01893 1 255 0 0
0.11906 0.12697 0.016727 1 255 0 0
0.0015854 0.1303 0.0057337 1 255 0 0
0.067618 0.12167 0.0073732 1 255 0 0
0.066193 0.13062 0.020977 1 255 0 0
0.035855 0.12241 0.011142 1 255 0 0
0.08877 0.13011 0.016286 1 255 0 0
0.10981 0.13225 0.015474 1 255 0 0
0.019271 0.12877 0.011605 1 255 0 0
0.079316 0.12558 0.015677 1 255 0 0
0.22359 0.13584 0.017103 19 0 0 255
0.026035 0.1252 0.010461 1 255 0 0
0.10188 0.12811 0.022437 1 255 0 0
0.088482 0.13338 0.013561 1 255 0 0
0.010242 0.12019 0.019268 1 255 0 0
0.0065354 0.13335 0.017506 1 255 0 0
0.087204 0.12802 0.022178 1 255 0 0
0.035526 0.12047 0.012755 1 255 0 0
0.035279 0.13489 0.011022 1 255 0 0
0.10444 0.12784 0.02253 1 255 0 0
0.059097 0.12694 0.014304 1 255 0 0
0.012544 0.11772 0.0030958 1 255 0 0
0.20564 0.11602 0.0083997 19 0 0 255
0.018093 0.11931 0.002567 1 255 0 0
0.026865 0.11775 0.012188 1 255 0 0
0.111 0.12105 0.017844 1 255 0 0
0.11947 0.12229 0.021367 1 255 0 0
0.066086 0.12712 0.021879 1 255 0 0
0.22235 0.12199 0.014877 19 0 0 255
0.021794 0.11535 0.011654 1 255 0 0
0.050426 0.12085 0.0057028 1 255 0 0
0.067948 0.12365 0.006566 1 255 0 0
0.096752 0.12457 0.0096885 1 255 0 0
0.19288 0.11278 0.0051646 19 0 0 255
0.16285 0.12928 0.013029 19 0 0 255
0.17936 0.12763 0.0060881 19 0 0 255
0.0096814 0.12131 0.0093826 1 255 0 0
0.18137 0.11458 0.0057807 19 0 0 255
0.0031169 0.1336 0.0068745 1 255 0 0
0.0048304 0.12378 0.0016928 1 255 0 0
0.17062 0.12581 0.011317 19 0 0 255
0.083106 0.13338 0.014259 1 255 0 0
0.010163 0.12249 0.02019 1 255 0 0
0.10678 0.12825 0.01589 1 255 0 0
0.10808 0.12638 0.010799 1 255 0 0
0.066703 0.11822 0.01662 1 255 0 0
0.023715 0.12736 0.011914 1 255 0 0
0.14191 0.12632 0.017662 1 255 0 0
0.07164 0.12637 0.0065714 1 255 0 0
0.02099 0.11617 0.0066373 1 255 0 0
0.017167 0.12496 0.011487 1 255 0 0
0.22499 0.12796 0.017556 19 0 0 255
0.023113 0.12728 0.021036 1 255 0 0
0.028643 0.11617 0.014722 1 255 0 0
0.063174 0.11864 0.0097142 1 255 0 0
0.21405 0.11559 0.011377 19 0 0 255
0.17333 0.11172 0.0083402 19 0 0 255
0.20984 0.12937 0.011444 19 0 0 255
0.028077 0.13323 0.0037395 1 255 0 0
0.21774 0.12172 0.012873 19 0 0 255
0.21203 0.12804 0.01225 19 0 0 255
0.039029 0.13473 0.017469 1 255 0 0
0.084065 0.13379 0.016025 1 255 0 0
0.21262 0.12223 0.012504 19 0 0 255
0.039329 0.12763 0.021306 1 255 0 0
0.077282 0.12365 0.007687 1 255 0 0
0.21385 0.12269 0.01298 19 0 0 255
0.11946 0.12473 0.018391 1 255 0 0
0.21282 0.11654 0.012613 19 0 0 255
0.016429 0.13054 0.020226 1 255 0 0
0.033362 0.13202 0.012535 1 255 0 0
0.037487 0.13511 0.017056 1 255 0 0
0.1636 0.11729 0.012812 19 0 0 255
0.071023 0.11914 0.018306 1 255 0 0
0.17472 0.12199 0.0094216 19 0 0 255
0.040133 0.11665 0.014582 1 255 0 0
0.080718 0.12302 0.0083243 1 255 0 0
0.066235 0.12342 0.014808 1 255 0 0
0.18608 0.13859 0.0066135 19 0 0 255
0.21324 0.13112 0.012448 19 0 0 255
0.10714 0.12318 0.01757 1 255 0 0
0.085585 0.12301 0.016117 1 255 0 0
0.1046 0.12014 0.015339 1 255 0 0
0.17471 0.12611 0.0076172 19 0 0 255
0.1079 0.12169 0.017631 1 255 0 0
0.073923 0.12199 0.020966 1 255 0 0
0.065839 0.11905 0.0094657 1 255 0 0
0.1274 0.12938 0.02157 1 255 0 0
0.023413 0.12122 0.01031 1 255 0 0
0.063409 0.12177 0.013005 1 255 0 0
0.023953 0.1318 0.011901 1 255 0 0
0.17626 0.11668 0.007154 19 0 0 255
0.045066 0.13048 0.011711 1 255 0 0
0.06145 0.12604 0.012845 1 255 0 0
0.10355 0.12522 0.017315 1 255 0 0
0.062942 0.12935 0.014548 1 255 0 0
0.08845 0.12366 0.021893 1 255 0 0
0.038332 0.12544 0.0027972 1 255 0 0
0.018317 0.13634 0.0057929 1 255 0 0
0.067768 0.12611 0.013271 1 255 0 0
0.035003 0.13363 0.0049272 1 255 0 0
0.11859 0.12861 0.01246 1 255 0 0
0.11276 0.12063 0.015781 1 255 0 0
0.074408 0.12904 0.0073349 1 255 0 0
0.13661 0.12448 0.019429 1 255 0 0
0.012942 0.12209 0.020172 1 255 0 0
0.098142 0.12366 0.010182 1 255 0 0
0.17859 0.11812 0.0080964 19 0 0 255
0.019272 0.1181 0.01005 1 255 0 0
0.025766 0.13578 0.011998 1 255 0 0
0.085813 0.12029 0.01615 1 255 0 0
0.10427 0.12386 0.015749 1 255 0 0
0.18087 0.1208 0.0058381 19 0 0 255
0.087031 0.12495 0.014578 1 255 0 0
0.20777 0.13101 0.010679 19 0 0 255
0.019029 0.1241 0.00071477 1 255 0 0
0.18074 0.12331 0.0074947 19 0 0 255
0.013943 0.11747 0.011318 1 255 0 0
0.22914 0.12883 0.018132 19 0 0 255
0.16351 0.13458 0.014479 19 0 0 255
0.07672 0.12424 0.013887 1 255 0 0
0.12761 0.12162 0.020102 1 255 0 0
0.12084 0.12674 0.012318 1 255 0 0
0.11723 0.12423 0.012266 1 255 0 0
0.21252 0.13528 0.012385 19 0 0 255
0.090986 0.12883 0.01482 1 255 0 0
0.18938 0.13208 0.0064301 19 0 0 255
0.031646 0.12842 0.010819 1 255 0 0
0.1223 0.13101 0.020641 1 255 0 0
0.21206 0.11464 0.010641 19 0 0 255
0.21666 0.11552 0.014176 19 0 0 255
0.035191 0.1359 0.015547 1 255 0 0
0.06545 0.11796 0.013167 1 255 0 0
0.0016793 0.1232 0.015377 1 255 0 0
0.19198 0.11212 0.0067452 19 0 0 255
0.20041 0.12375 0.0067646 19 0 0 255
0.053012 0.12541 0.013903 1 255 0 0
0.025046 0.13422 0.0182 1 255 0 0
0.02332 0.11746 0.0049839 1 255 0 0
0.22131 0.12205 0.016157 19 0 0 255
0.020616 0.13543 0.0048113 1 255 0 0
0.087433 0.13094 0.01619 1 255 0 0
0.046268 0.1337 0.0066441 1 255 0 0
0.02597 0.12709 0.0013494 1 255 0 0
0.17644 0.14104 0.00864 19 0 0 255
0.21474 0.11424 0.01184 19 0 0 255
0.18594 0.11537 0.0067726 19 0 0 255
0.16952 0.13136 0.011834 19 0 0 255
0.043232 0.12236 0.01164 1 255 0 0
0.0074619 0.13499 0.0091447 1 255 0 0
0.10802 0.13053 0.015959 1 255 0 0
0.010365 0.12408 0.020605 1 255 0 0
0.01733 0.1375 0.0093941 1 255 0 0
0.12281 0.12587 0.016987 1 255 0 0
0.048198 0.11884 0.018378 1 255 0 0
0.04294 0.12275 0.020866 1 255 0 0
0.061271 0.13319 0.0082711 1 255 0 0
0.20089 0.13711 0.0084875 19 0 0 255
0.17629 0.12061 0.0071169 19 0 0 255
0.16168 0.12171 0.01354 19 0 0 255
0.21069 0.13124 0.010672 19 0 0 255
0.20736 0.13669 0.010512 19 0 0 255
0.081989 0.11878 0.015198 1 255 0 0
0.054713 0.12771 0.014003 1 255 0 0
0.19546 0.11247 0.0056143 19 0 0 255
0.026035 0.11955 0.019056 1 255 0 0
0.047519 0.11691 0.011316 1 255 0 0
0.081203 0.12834 0.022026 1 255 0 0
0.037432 0.11877 0.018423 1 255 0 0
0.095808 0.1272 0.01678 1 255 0 0
0.11788 0.12932 0.016632 1 255 0 0
0.12074 0.12259 0.018492 1 255 0 0
0.13029 0.13117 0.01908 1 255 0 0
0.033222 0.12953 0.012541 1 255 0 0
0.18836 0.13161 0.0049008 19 0 0 255
0.026462 0.13421 0.018193 1 255 0 0
0.019126 0.13613 0.0099244 1 255 0 0
0.18794 0.13648 0.0065171 19 0 0 255
0.034507 0.13039 0.010999 1 255 0 0
0.078685 0.11878 0.016664 1 255 0 0
0.18684 0.1313 0.004993 19 0 0 255
0.03634 0.11741 0.016777 1 255 0 0
0.061471 0.11773 0.012049 1 255 0 0
0.206 0.12802 0.0084386 19 0 0 255
0.01762 0.12116 0.0099192 1 255 0 0
0.06122 0.13057 0.012801 1 255 0 0
0.013322 0.1378 0.010458 1 255 0 0
0.043159 0.11687 0.015074 1 255 0 0
0.028837 0.13106 0.010612 1 255 0 0
0.0038135 0.13462 0.0077969 1 255 0 0
0.068264 0.11867 0.017528 1 255 0 0
0.025928 0.12689 0.012066 1 255 0 0
0.064653 0.13439 0.016967 1 255 0 0
0.11467 0.12135 0.016467 1 255 0 0
0.13439 0.12353 0.017745 1 255 0 0
0.14053 0.12823 0.01934 1 255 0 0
0.16372 0.13134 0.014415 19 0 0 255
