ply
format ascii 1.0
comment author Paulo Abelha (p.abelha at abdn ac uk)
element vertex 722
property float x
property float y
property float z
property int segm
property float nx
property float ny
property float nz
property uchar red
property uchar green
property uchar blue
end_header
0.065425 -0.010431 0.0005939 1 0.01493 -0.98605 -0.16581 255 0 0
0.066055 -0.010371 -0.0016748 1 -6.3266e-08 1.8418e-06 1 255 0 0
0.064575 -0.0074505 0.0016849 1 -4.9987e-05 0.00036794 1 255 0 0
0.062855 -0.010378 -0.001652 1 2.3642e-05 -0.00018835 -1 255 0 0
0.066185 -0.010447 -0.0001006 1 3.5397e-05 -0.00019348 -1 255 0 0
0.063635 -0.0071345 0.0016849 1 -6.3266e-08 1.8418e-06 1 255 0 0
0.066455 -0.010452 0.0009631 1 -6.3266e-08 1.8418e-06 1 255 0 0
0.062415 -0.0067475 0.0016849 1 3.3131e-05 -0.00020339 -1 255 0 0
0.063535 -0.0080555 -0.0016753 1 8.7758e-05 0.00060352 1 255 0 0
0.064615 -0.0071465 -0.0016755 1 0.014208 -0.089245 -0.99591 255 0 0
0.065355 -0.0083125 0.0016849 1 -0.10692 0.46918 0.8766 255 0 0
0.069325 -0.0079165 -0.0016752 1 0.0050142 0.031264 -0.9995 255 0 0
0.069025 -0.0097685 -0.0016749 1 3.0678e-05 -0.0002005 -1 255 0 0
0.068825 -0.0088205 -0.001675 1 2.6412e-05 -0.00020146 -1 255 0 0
0.067325 -0.0098795 0.0016859 1 -6.3266e-08 1.8418e-06 1 255 0 0
0.070095 -0.0093865 -0.0016749 1 1.8216e-05 -0.00016097 -1 255 0 0
0.068905 -0.0095595 0.0016859 1 6.1008e-05 -0.00019735 -1 255 0 0
0.067905 -0.010483 -0.0013211 1 -6.3266e-08 1.8418e-06 1 255 0 0
0.071015 -0.0091315 -0.0016749 1 -0.011234 -0.99902 0.042923 255 0 0
0.067665 -0.0085095 0.0016859 1 3.8666e-05 -0.00017146 -1 255 0 0
0.066975 -0.0079945 -0.0016753 1 -0.045455 0.47132 -0.88079 255 0 0
0.070715 -0.01054 0.0005359 1 4.9349e-05 -0.00019328 -1 255 0 0
0.070715 -0.0098645 0.0016859 1 -6.3266e-08 1.8418e-06 1 255 0 0
0.068315 -0.010491 -0.0004022 1 2.2762e-05 -0.00020914 -1 255 0 0
0.068365 -0.010391 0.0016859 1 -3.4735e-05 0.00023156 1 255 0 0
0.071675 -0.010561 -0.0002484 1 -6.3266e-08 1.8418e-06 1 255 0 0
0.071205 -0.010551 -0.0015779 1 2.1371e-05 -0.00019458 -1 255 0 0
0.070215 -0.010458 -0.0016747 1 0.079853 0.46971 0.8792 255 0 0
0.067835 -0.0073125 0.0016849 1 -0.00080997 0.48631 0.87378 255 0 0
0.069025 -0.0084605 0.0016859 1 0.036689 0.046458 0.99825 255 0 0
0.067945 -0.0063705 0.0016849 1 -5.8779e-05 0.00039268 1 255 0 0
0.067605 -0.010476 0.0006003 1 0.0010786 0.0040193 -0.99999 255 0 0
0.070675 -0.01054 -0.000574 1 0.022527 -0.49297 -0.86976 255 0 0
0.069565 -0.010517 -0.0006341 1 -0.00017133 0.0004697 1 255 0 0
0.068135 -0.0094555 -0.0016749 1 -6.3266e-08 1.8418e-06 1 255 0 0
0.069355 -0.0067775 0.0016849 1 -6.3266e-08 1.8418e-06 1 255 0 0
0.070315 -0.0087025 0.0016859 1 -6.3266e-08 1.8418e-06 1 255 0 0
0.071275 -0.0077985 -0.0016752 1 -6.7907e-05 0.00045176 1 255 0 0
0.071905 -0.0097765 0.0016859 1 0.031869 0.050124 0.99823 255 0 0
0.071685 -0.0069825 0.0016849 1 3.787e-05 -0.00019628 -1 255 0 0
0.069715 -0.0078075 0.0016849 1 0.029283 0.66368 -0.74744 255 0 0
0.066965 -0.010463 -0.0009542 1 3.0599e-05 0.00052349 1 255 0 0
0.069525 -0.010516 0.0004558 1 2.0005e-05 -0.00020561 -1 255 0 0
0.069235 -0.0069625 -0.0016754 1 9.4592e-06 -0.0001803 -1 255 0 0
0.066995 -0.0065585 0.0016849 1 -6.3266e-08 1.8418e-06 1 255 0 0
0.069535 -0.010516 0.0015493 1 3.2029e-05 -0.00019714 -1 255 0 0
0.071215 -0.0080365 0.0016859 1 2.7663e-05 -0.00021397 -1 255 0 0
0.071505 -0.010557 0.001316 1 0.014127 0.24354 0.96979 255 0 0
0.068105 -0.0079635 -0.0016752 1 -0.0017597 -0.5871 -0.80952 255 0 0
0.071885 -0.0067595 -0.0016754 1 5.3979e-05 -0.00022007 -1 255 0 0
0.070655 -0.0067855 0.0016849 1 1.8467e-05 0.00051764 1 255 0 0
0.070325 -0.0076205 -0.0016752 1 -5.9289e-05 0.00055949 1 255 0 0
0.071835 -0.0085585 -0.001675 1 -6.3266e-08 1.8418e-06 1 255 0 0
0.075295 -0.010177 -0.0016746 1 0.011807 0.99975 0.01896 255 0 0
0.076765 -0.010666 -0.0010128 1 -6.3266e-08 1.8418e-06 1 255 0 0
0.074695 -0.010623 0.0016649 1 -0.020907 -0.99978 -7.3832e-06 255 0 0
0.075285 -0.0074675 0.0016859 1 1.5947e-05 -0.00017905 -1 255 0 0
0.075445 -0.010639 -0.0006601 1 -6.3266e-08 1.8418e-06 1 255 0 0
0.076285 -0.0093715 -0.0016747 1 -6.3266e-08 1.8418e-06 1 255 0 0
0.072405 -0.0096595 -0.0016748 1 -6.3266e-08 1.8418e-06 1 255 0 0
0.072495 -0.0089235 0.0016859 1 -8.3789e-06 0.00028054 1 255 0 0
0.075085 -0.0089485 0.0016859 1 0.12202 0.45784 0.88062 255 0 0
0.076705 -0.010665 0.0002862 1 0.0067277 -0.029998 0.99953 255 0 0
0.076415 -0.010659 0.0016479 1 0.025425 0.8126 0.58226 255 0 0
0.073985 -0.0068155 -0.0016753 1 1.0824e-05 -0.00021209 -1 255 0 0
0.073755 -0.010604 -0.0010834 1 -8.3843e-05 0.00029753 1 255 0 0
0.074005 -0.010609 0.0006829 1 3.4373e-05 -0.00020469 -1 255 0 0
0.073685 -0.0087255 0.0016859 1 4.4748e-05 -0.00021578 -1 255 0 0
0.072755 -0.010583 -0.0013455 1 3.0638e-05 -0.00017728 -1 255 0 0
0.076285 -0.0073085 0.0016859 1 -0.053431 0.47228 -0.87983 255 0 0
0.072715 -0.0079865 -0.0016751 1 -0.022215 -0.99968 0.011844 255 0 0
0.072365 -0.0076845 0.0016859 1 -1.4787e-06 -0.00019006 -1 255 0 0
0.075565 -0.0066805 -0.0016753 1 0.0063426 0.0049871 0.99997 255 0 0
0.074795 -0.0083705 -0.001675 1 0.0050733 0.98809 -0.15381 255 0 0
0.075895 -0.0084285 -0.0016749 1 -0.023814 0.19047 0.98141 255 0 0
0.073215 -0.010593 -0.0002664 1 -0.011501 0.20025 0.97968 255 0 0
0.073995 -0.0077845 -0.0016751 1 -0.10023 0.46745 -0.87832 255 0 0
0.076145 -0.0095345 0.0016859 1 -0.022215 0.45136 0.89207 255 0 0
0.072355 -0.010575 0.0004837 1 -0.070751 0.38345 -0.92085 255 0 0
0.075715 -0.010644 0.0009021 1 2.0274e-05 -0.00019183 -1 255 0 0
0.073785 -0.0096675 -0.0016748 1 0.01043 -0.64599 -0.76327 255 0 0
0.072935 -0.0068065 0.0016849 1 2.3638e-05 -0.00019551 -1 255 0 0
0.073795 -0.010086 0.0016859 1 0.013117 0.034179 0.99933 255 0 0
0.076005 -0.0082765 0.0016859 1 -0.00024129 0.00046767 1 255 0 0
0.073335 -0.0087635 -0.0016749 1 0.03342 -0.17863 -0.98335 255 0 0
0.073925 -0.0069035 0.0016849 1 -0.025246 0.4746 0.87984 255 0 0
0.076785 -0.0088285 0.0016859 1 2.2191e-05 -0.00020869 -1 255 0 0
0.072925 -0.010586 0.0015356 1 5.5565e-06 -0.00019454 -1 255 0 0
0.074365 -0.010616 -0.000293 1 2.1534e-05 -0.00019844 -1 255 0 0
0.073485 -0.0077395 0.0016859 1 1.5497e-05 0.00036352 1 255 0 0
0.076525 -0.0073205 -0.0016751 1 0.035162 0.48717 0.8726 255 0 0
0.074415 -0.0080525 0.0016859 1 -0.02074 -0.99978 0.00052063 255 0 0
0.080435 -0.010742 -0.0002951 1 -8.5823e-05 0.00052606 1 255 0 0
0.078365 -0.010699 0.0016839 1 0.0001572 0.00049329 1 255 0 0
0.080595 -0.0071995 0.0016859 1 3.2386e-05 -0.00020386 -1 255 0 0
0.080085 -0.0074935 -0.001675 1 2.1021e-05 -0.00021321 -1 255 0 0
0.077235 -0.0079505 0.0016859 1 2.8869e-05 -0.00019659 -1 255 0 0
0.081205 -0.010758 -0.0009908 1 0.0014297 -0.75475 -0.65601 255 0 0
0.078295 -0.0065935 0.0016849 1 -6.3266e-08 1.8418e-06 1 255 0 0
0.078945 -0.0078755 -0.001675 1 0.0023931 0.028786 -0.99958 255 0 0
0.077585 -0.0097685 -0.0016746 1 -5.2943e-05 0.00020433 1 255 0 0
0.079655 -0.010726 0.0016639 1 4.6872e-05 -0.00018168 -1 255 0 0
0.079125 -0.010715 0.0008103 1 3.2558e-05 -0.00021193 -1 255 0 0
0.081525 -0.0081475 -0.0016749 1 -8.5954e-05 0.0004124 1 255 0 0
0.078705 -0.010707 -6.2894e-05 1 -0.00012602 0.00031209 1 255 0 0
0.077935 -0.0087785 -0.0016748 1 -0.00018227 0.00052795 1 255 0 0
0.078795 -0.010709 -0.0014344 1 -0.00017342 0.00031034 1 255 0 0
0.077435 -0.0079525 -0.001675 1 7.4778e-05 0.00056175 1 255 0 0
0.079165 -0.0096485 0.0016859 1 -1.5561e-05 0.00036874 1 255 0 0
0.081415 -0.010763 0.0001263 1 0.26898 0.89033 0.36736 255 0 0
0.077835 -0.010689 -0.0014224 1 4.3095e-05 -0.00018176 -1 255 0 0
0.081195 -0.0097145 0.0016859 1 3.0869e-05 -0.00016824 -1 255 0 0
0.077925 -0.0069445 -0.0016752 1 7.3467e-05 0.0004042 1 255 0 0
0.078665 -0.0086865 0.0016859 1 -0.00011472 0.0005316 1 255 0 0
0.080395 -0.0063965 -0.0016752 1 -0.00020344 0.0005982 1 255 0 0
0.079265 -0.0074085 0.0016859 1 -6.3266e-08 1.8418e-06 1 255 0 0
0.080755 -0.010749 0.0013879 1 -6.3266e-08 1.8418e-06 1 255 0 0
0.079785 -0.0085805 0.0016859 1 -0.026423 0.32617 -0.94494 255 0 0
0.077875 -0.0096085 0.0016859 1 4.0634e-06 -0.00020066 -1 255 0 0
0.077195 -0.0069515 0.0016859 1 -0.00029492 0.00050166 1 255 0 0
0.081175 -0.0080825 0.0016859 1 2.0168e-05 -0.00020445 -1 255 0 0
0.078995 -0.0088695 -0.0016748 1 2.9371e-05 -0.00019785 -1 255 0 0
0.077695 -0.010685 0.0009227 1 -0.0070508 0.057576 -0.99832 255 0 0
0.077585 -0.010683 -0.0001701 1 -6.3266e-08 1.8418e-06 1 255 0 0
0.080175 -0.0097045 -0.0016746 1 -6.3266e-08 1.8418e-06 1 255 0 0
0.080015 -0.010734 -0.0012105 1 0.37634 0.28905 -0.88024 255 0 0
0.081445 -0.0070745 -0.0016751 1 -9.7664e-05 0.00041909 1 255 0 0
0.080645 -0.0087015 -0.0016748 1 3.1951e-05 -0.0001755 -1 255 0 0
0.081725 -0.0066875 0.0016859 1 -6.3266e-08 1.8418e-06 1 255 0 0
0.081145 -0.0095755 -0.0016746 1 0.0066996 0.088674 0.99604 255 0 0
0.079065 -0.0066895 -0.0016752 1 3.9466e-05 0.00020632 1 255 0 0
0.080195 -0.0096145 0.0016859 1 1.8416e-05 -0.0001929 -1 255 0 0
0.081785 -0.010636 0.0016859 1 1.0937e-05 0.00023469 1 255 0 0
0.086855 -0.010876 8.5508e-05 1 4.0655e-05 -0.0002181 -1 255 0 0
0.086855 -0.0064695 0.0016859 1 0.012817 0.015689 -0.99979 255 0 0
0.085865 -0.0076965 0.0016859 1 -0.020514 -0.99979 0.00033756 255 0 0
0.082215 -0.0097085 0.0016859 1 -0.020643 -0.99979 5.2608e-05 255 0 0
0.086555 -0.0084135 -0.0016747 1 2.9246e-05 -0.00019331 -1 255 0 0
0.085225 -0.010842 -0.00153 1 -0.01386 0.79517 0.60622 255 0 0
0.084495 -0.010294 0.0016859 1 -0.00015912 0.00040768 1 255 0 0
0.084655 -0.0069555 -0.001675 1 -0.00027048 0.00058191 1 255 0 0
0.082665 -0.0063895 0.0016859 1 -4.8883e-05 0.00033872 1 255 0 0
0.084055 -0.010197 -0.0016744 1 -6.3266e-08 1.8418e-06 1 255 0 0
0.082625 -0.0066625 -0.0016751 1 2.0351e-05 -0.00020165 -1 255 0 0
0.085365 -0.0066345 0.0016859 1 0.0017212 -0.0018061 1 255 0 0
0.084035 -0.0087005 -0.0016747 1 8.9809e-05 0.00043492 1 255 0 0
0.083325 -0.010796 0.0016859 1 0.055449 0.25776 0.96462 255 0 0
0.084315 -0.010823 -0.0009812 1 0.1963 0.29743 -0.93435 255 0 0
0.085305 -0.0083195 -0.0016747 1 4.4508e-05 -0.00021186 -1 255 0 0
0.082945 -0.010795 -0.0004015 1 -0.014424 -0.82557 -0.56411 255 0 0
0.086555 -0.01011 -0.0016743 1 5.0195e-05 -0.00017142 -1 255 0 0
0.086335 -0.0068535 -0.001675 1 3.1305e-05 -0.00019318 -1 255 0 0
0.085345 -0.010844 0.0016809 1 -0.01618 -0.96133 0.27493 255 0 0
0.086445 -0.010867 0.0009403 1 -6.3266e-08 1.8418e-06 1 255 0 0
0.084005 -0.010816 0.000162 1 1.5677e-05 -0.00022842 -1 255 0 0
0.086225 -0.010306 0.0016859 1 2.8531e-05 -0.00019923 -1 255 0 0
0.082175 -0.0087115 0.0016859 1 -6.3266e-08 1.8418e-06 1 255 0 0
0.085215 -0.0092725 -0.0016745 1 0.24641 0.27274 -0.93 255 0 0
0.083235 -0.0074395 -0.001675 1 -0.0019448 -0.009541 0.99995 255 0 0
0.085075 -0.0091305 0.0016859 1 2.719e-05 -0.00019671 -1 255 0 0
0.083195 -0.0089405 0.0016859 1 4.6194e-05 -0.00020147 -1 255 0 0
0.082075 -0.0099785 -0.0016745 1 3.2629e-05 -0.0001831 -1 255 0 0
0.085335 -0.010844 -0.0002016 1 3.5036e-05 -0.00020682 -1 255 0 0
0.082545 -0.010786 0.0009611 1 3.1804e-05 0.00025393 1 255 0 0
0.082535 -0.010786 -0.0015162 1 2.7642e-05 -0.00021144 -1 255 0 0
0.082525 -0.0074075 0.0016859 1 0.0015358 -0.0014927 1 255 0 0
0.083065 -0.0085925 -0.0016747 1 -0.072099 0.46951 -0.87998 255 0 0
0.083665 -0.0075455 0.0016859 1 -0.045268 -0.80773 0.58782 255 0 0
0.086845 -0.0086335 0.0016859 1 -6.5844e-05 0.0003532 1 255 0 0
0.083095 -0.010014 -0.0016744 1 -6.3266e-08 1.8418e-06 1 255 0 0
0.086215 -0.0093585 0.0016859 1 -6.3266e-08 1.8418e-06 1 255 0 0
0.084955 -0.010836 0.0007544 1 0.00016875 0.00037296 1 255 0 0
0.084865 -0.0077935 0.0016859 1 -6.3266e-08 1.8418e-06 1 255 0 0
0.084345 -0.0067715 0.0016859 1 5.7948e-06 -0.00019171 -1 255 0 0
0.084055 -0.0093075 0.0016859 1 -0.020686 -0.99979 0.00030568 255 0 0
0.086075 -0.01086 -0.0010122 1 -0.020645 -0.99979 0.00033224 255 0 0
0.088955 -0.0066105 0.0016859 1 4.4933e-05 0.00044809 1 255 0 0
0.087015 -0.010879 -0.0012587 1 -6.3266e-08 1.8418e-06 1 255 0 0
0.090555 -0.0072525 0.0016859 1 -4.2869e-05 0.00048305 1 255 0 0
0.088215 -0.0075705 -0.0016748 1 -0.00199 -0.072633 0.99736 255 0 0
0.088185 -0.0094915 0.0016859 1 -0.0018389 0.054111 -0.99853 255 0 0
0.088835 -0.0095935 -0.0016744 1 0.0048277 0.23787 -0.97129 255 0 0
0.089035 -0.0066165 -0.001675 1 -0.00015465 0.00040473 1 255 0 0
0.087095 -0.01088 0.0016859 1 1.9418e-05 -0.00022138 -1 255 0 0
0.088765 -0.010915 0.000547 1 -0.071503 0.41802 -0.90562 255 0 0
0.087695 -0.010893 0.0007261 1 -0.074668 0.41425 0.90709 255 0 0
0.087585 -0.010213 -0.0016743 1 -0.01483 0.41765 0.90849 255 0 0
0.091585 -0.010974 -0.0004126 1 -8.1672e-05 0.00039641 1 255 0 0
0.088325 -0.010906 -0.0010117 1 1.8155e-05 -0.00018976 -1 255 0 0
0.089095 -0.010646 -0.0016742 1 2.2287e-05 -0.00020542 -1 255 0 0
0.091845 -0.0097975 -0.0016743 1 -0.020841 -0.99978 0.00032676 255 0 0
0.089905 -0.0064325 0.0016859 1 -0.014877 -0.9987 0.048797 255 0 0
0.091065 -0.010342 -0.0016742 1 0.020943 0.99978 -0.0016178 255 0 0
0.089625 -0.010779 0.0016869 1 6.9492e-05 0.0003508 1 255 0 0
0.090405 -0.0091755 -0.0016744 1 -0.026865 0.28542 0.95802 255 0 0
0.090315 -0.010947 0.0009681 1 0.05661 0.64945 0.75829 255 0 0
0.089145 -0.0077845 -0.0016747 1 4.8883e-05 -0.00020725 -1 255 0 0
0.087945 -0.010407 0.0016859 1 -6.3266e-08 1.8418e-06 1 255 0 0
0.091305 -0.010968 0.0013729 1 2.4224e-05 -0.00017876 -1 255 0 0
0.090645 -0.0098645 0.0016859 1 -0.0039219 0.031512 0.9995 255 0 0
0.089015 -0.010063 0.0016859 1 -6.3266e-08 1.8418e-06 1 255 0 0
0.089305 -0.010927 -0.0007629 1 -6.3266e-08 1.8418e-06 1 255 0 0
0.087755 -0.0081515 0.0016859 1 -0.023899 -0.0072845 0.99969 255 0 0
0.091175 -0.0078875 -0.0016747 1 -0.043701 0.25382 -0.96626 255 0 0
0.090925 -0.0087045 0.0016859 1 0.034673 0.99867 0.038174 255 0 0
0.089115 -0.0088835 0.0016859 1 -6.3266e-08 1.8418e-06 1 255 0 0
0.087675 -0.0086355 -0.0016746 1 -0.020972 -0.99978 0.0010992 255 0 0
0.089075 -0.0076395 0.0016859 1 0.020593 0.99979 0.00094876 255 0 0
0.087365 -0.0072615 0.0016859 1 -0.0026982 0.0029605 -0.99999 255 0 0
0.090695 -0.010955 -0.000901 1 3.3731e-05 -0.00019995 -1 255 0 0
0.090305 -0.010947 -6.7924e-06 1 -6.3266e-08 1.8418e-06 1 255 0 0
0.090055 -0.0081895 -0.0016746 1 4.416e-05 -0.00018167 -1 255 0 0
0.090045 -0.0070395 -0.0016749 1 0.025462 0.46938 -0.88263 255 0 0
0.090135 -0.01079 -0.0016741 1 0.084889 0.46704 0.88015 255 0 0
0.087185 -0.0097125 0.0016859 1 4.442e-05 -0.00018489 -1 255 0 0
0.091785 -0.0071525 -0.0016748 1 0.042343 0.85144 0.52274 255 0 0
0.087075 -0.0075305 -0.0016748 1 -0.027876 0.22857 -0.97313 255 0 0
0.095025 -0.0071585 -0.0016747 1 3.2438e-05 -0.00020286 -1 255 0 0
0.096205 -0.0096725 0.0016869 1 0.024721 0.045742 -0.99865 255 0 0
0.096585 -0.0074005 -0.0016746 1 -0.00010525 0.00048844 1 255 0 0
0.096885 -0.0085425 -0.0016744 1 1.2515e-05 -0.00019499 -1 255 0 0
0.092385 -0.010055 0.0016869 1 3.758e-05 -0.00021922 -1 255 0 0
0.096435 -0.011074 0.00018071 1 8.7473e-06 0.00048404 1 255 0 0
0.093295 -0.010823 -0.001674 1 -0.019641 -0.99962 -0.019135 255 0 0
0.094815 -0.0082075 -0.0016745 1 -6.3266e-08 1.8418e-06 1 255 0 0
0.093645 -0.011017 -0.0007259 1 3.3744e-05 -0.00018515 -1 255 0 0
0.092135 -0.0076905 0.0016859 1 -0.00026772 0.00029873 1 255 0 0
0.093635 -0.010499 0.0016869 1 -0.0016686 0.15439 -0.98801 255 0 0
0.092395 -0.0088645 0.0016859 1 -0.061543 -0.93199 0.35721 255 0 0
0.092235 -0.010987 0.0016729 1 5.7244e-05 -0.00019439 -1 255 0 0
0.095555 -0.0065825 0.0016859 1 0.024456 0.29488 0.95522 255 0 0
0.093915 -0.0070925 -0.0016747 1 2.5512e-05 -0.00023037 -1 255 0 0
0.093575 -0.0071825 0.0016859 1 -0.069362 -0.83976 -0.5385 255 0 0
0.095005 -0.0098985 0.0016869 1 2.3954e-06 -0.00020373 -1 255 0 0
0.095315 -0.0078185 0.0016859 1 -0.047888 -0.85284 0.51997 255 0 0
0.094725 -0.010873 0.0016869 1 -0.00012055 0.00026055 1 255 0 0
0.092515 -0.010993 2.8408e-05 1 -6.3266e-08 1.8418e-06 1 255 0 0
0.092785 -0.0071675 -0.0016748 1 2.8694e-05 0.0003811 1 255 0 0
0.094595 -0.010504 -0.0016741 1 -0.046827 0.48856 0.87127 255 0 0
0.095775 -0.011029 0.0016869 1 -0.031326 -0.14864 -0.98839 255 0 0
0.094735 -0.0070525 0.0016859 1 -0.020671 -0.99979 0.00017837 255 0 0
0.092265 -0.010988 -0.0012992 1 -0.011969 0.061557 0.99803 255 0 0
0.095435 -0.011054 0.00067611 1 -0.0002216 0.00041476 1 255 0 0
0.093635 -0.0084785 -0.0016745 1 8.8546e-05 0.00034147 1 255 0 0
0.093675 -0.011017 0.0004501 1 -6.3266e-08 1.8418e-06 1 255 0 0
0.096145 -0.011069 -0.0012094 1 -0.086899 0.63736 -0.76565 255 0 0
0.096575 -0.0074465 0.0016859 1 -0.020781 -0.99978 0.00023977 255 0 0
0.094985 -0.011045 -0.0009592 1 3.2793e-05 -0.00018611 -1 255 0 0
0.096825 -0.0064335 -0.0016748 1 -0.00019612 0.00037193 1 255 0 0
0.096285 -0.0085365 0.0016859 1 -7.2036e-05 0.00039061 1 255 0 0
0.096545 -0.010326 -0.001674 1 -6.3266e-08 1.8418e-06 1 255 0 0
0.096075 -0.0092045 -0.0016743 1 -6.3266e-08 1.8418e-06 1 255 0 0
0.095065 -0.0093625 -0.0016743 1 -0.01834 -0.99979 0.0093289 255 0 0
0.093365 -0.0085195 0.0016859 1 -1.6656e-06 0.00028714 1 255 0 0
0.094025 -0.0094245 0.0016859 1 -0.0018292 -0.011346 0.99993 255 0 0
0.092065 -0.0087055 -0.0016745 1 -6.3266e-08 1.8418e-06 1 255 0 0
0.094545 -0.011035 5.9608e-05 1 -6.3266e-08 1.8418e-06 1 255 0 0
0.094395 -0.0083875 0.0016859 1 -0.053324 -0.98878 -0.13957 255 0 0
0.093455 -0.0095085 -0.0016743 1 1.655e-05 -0.00020914 -1 255 0 0
0.095295 -0.0089135 0.0016859 1 -7.9574e-05 0.00045657 1 255 0 0
0.096965 -0.011085 0.0015028 1 -0.023006 -0.99972 0.0045767 255 0 0
0.097915 -0.0073375 0.0016859 1 2.4441e-05 -0.00019216 -1 255 0 0
0.10045 -0.011158 0.00017951 1 0.00011672 0.00052829 1 255 0 0
0.10026 -0.0064535 0.0016859 1 4.1116e-05 -0.00021355 -1 255 0 0
0.098255 -0.010229 0.0016869 1 0.039463 0.99695 0.067265 255 0 0
0.10005 -0.0083705 0.0016859 1 -0.0028273 0.0016332 0.99999 255 0 0
0.099395 -0.011136 0.00060421 1 2.8205e-05 -0.00021238 -1 255 0 0
0.097325 -0.011093 -0.0014335 1 0.021756 0.99976 0.000952 255 0 0
0.099675 -0.0092735 -0.0016742 1 0.00027273 0.00045195 1 255 0 0
0.098045 -0.010299 -0.001674 1 -1.8292e-05 0.00039301 1 255 0 0
0.099535 -0.0079155 -0.0016744 1 -6.3266e-08 1.8418e-06 1 255 0 0
0.097095 -0.010147 0.0016869 1 1.8524e-05 -0.0002199 -1 255 0 0
0.098945 -0.0066885 -0.0016747 1 -0.10783 0.54002 -0.83471 255 0 0
0.098805 -0.011124 -0.00066739 1 2.3742e-05 -0.00020272 -1 255 0 0
0.097665 -0.0111 -0.00038009 1 1.9109e-05 -0.00019329 -1 255 0 0
0.098135 -0.0088825 -0.0016743 1 0.0053618 0.38921 -0.92113 255 0 0
0.10177 -0.0092745 -0.0016741 1 1.5468e-05 -0.00020121 -1 255 0 0
0.099665 -0.011139 0.0016869 1 -0.024157 0.52405 -0.85135 255 0 0
0.10051 -0.0099685 -0.001674 1 9.2906e-05 0.00041673 1 255 0 0
0.10179 -0.011186 0.00045731 1 0.24309 0.4188 -0.87494 255 0 0
0.099715 -0.0072445 0.0016859 1 -0.00022468 0.00047538 1 255 0 0
0.10091 -0.0074425 -0.0016745 1 1.6659e-05 -0.00021403 -1 255 0 0
0.10055 -0.01116 -0.001363 1 -0.00029308 0.00041036 1 255 0 0
0.098455 -0.0075785 -0.0016745 1 0.024027 0.99971 -7.0503e-05 255 0 0
0.098435 -0.0083915 0.0016859 1 5.5043e-06 0.00023264 1 255 0 0
0.098215 -0.011111 0.0010075 1 2.3651e-05 -0.00020822 -1 255 0 0
0.10052 -0.011159 0.0011976 1 0.048871 -0.97904 0.19773 255 0 0
0.097215 -0.0092005 0.0016859 1 4.4755e-05 -0.00018433 -1 255 0 0
0.099685 -0.010592 -0.0016739 1 -0.00014637 0.00048869 1 255 0 0
0.099165 -0.0090775 0.0016859 1 -0.020952 -0.99978 -4.0143e-05 255 0 0
0.10143 -0.010239 -0.0016739 1 -0.025172 -0.68716 0.72607 255 0 0
0.098895 -0.0098555 -0.0016741 1 0.15955 0.48203 0.86151 255 0 0
0.10114 -0.0079705 0.0016859 1 0.32431 0.29385 -0.89915 255 0 0
0.097675 -0.0069065 -0.0016747 1 2.744e-05 -0.00019397 -1 255 0 0
0.10151 -0.011143 0.0016869 1 4.6603e-05 0.00054391 1 255 0 0
0.10018 -0.0093575 0.0016869 1 -5.2472e-05 0.00052135 1 255 0 0
0.097315 -0.0080845 0.0016859 1 -6.3266e-08 1.8418e-06 1 255 0 0
0.10083 -0.01009 0.0016869 1 -0.00011581 0.00040273 1 255 0 0
0.098775 -0.011089 -0.0016738 1 -0.028563 0.29628 -0.95468 255 0 0
0.098825 -0.0064295 0.0016859 1 4.2525e-05 -0.00019382 -1 255 0 0
0.1007 -0.0086835 -0.0016743 1 -0.024186 0.59962 0.79992 255 0 0
0.099705 -0.010178 0.0016869 1 -0.019969 -0.85449 0.51908 255 0 0
0.10148 -0.011179 -0.00092689 1 -0.04441 0.46284 0.88533 255 0 0
0.10143 -0.0065725 -0.0016747 1 -6.0812e-05 0.00025115 1 255 0 0
0.10431 -0.0099165 0.0016869 1 1.4883e-05 -0.00019366 -1 255 0 0
0.1069 -0.0067245 0.0014352 1 -0.085771 0.46596 -0.88064 255 0 0
0.10441 -0.0063575 0.0016859 1 -6.3266e-08 1.8418e-06 1 255 0 0
0.10677 -0.0069925 -0.0015701 1 7.607e-06 -0.00019838 -1 255 0 0
0.10454 -0.011243 -0.0014979 1 0.046901 0.19096 -0.98048 255 0 0
0.10599 -0.0064655 0.0016859 1 -0.00023513 0.00036828 1 255 0 0
0.10406 -0.010828 0.0016869 1 -0.32959 0.94082 -0.078993 255 0 0
0.10351 -0.0079345 -0.0016743 1 3.8099e-05 -0.00019002 -1 255 0 0
0.10432 -0.0088325 0.0016869 1 -6.3266e-08 1.8418e-06 1 255 0 0
0.10251 -0.0063795 -0.0016747 1 -0.014962 -0.7495 0.66183 255 0 0
0.10465 -0.0082395 -0.0016742 1 0.35546 0.37612 0.85567 255 0 0
0.10278 -0.010508 0.0016869 1 -0.0001063 0.00033634 1 255 0 0
0.1026 -0.011202 -4.9092e-05 1 -0.020681 -0.99979 0.00033356 255 0 0
0.10307 -0.0068265 0.0016859 1 -0.020861 -0.99978 0.00019974 255 0 0
0.10647 -0.0080515 0.0016859 1 5.8369e-06 -0.00021919 -1 255 0 0
0.10568 -0.0083725 -0.0016742 1 -0.02176 -0.99976 -0.0017425 255 0 0
0.1061 -0.010511 0.0016869 1 -4.6578e-05 0.00025287 1 255 0 0
0.10466 -0.011245 -0.00022569 1 -6.3266e-08 1.8418e-06 1 255 0 0
0.1029 -0.0092075 0.0016869 1 0.031781 -0.12197 -0.99202 255 0 0
0.10354 -0.0088835 -0.0016741 1 0.26244 0.2968 -0.91817 255 0 0
0.1024 -0.0079335 -0.0016744 1 -0.00014991 0.00040557 1 255 0 0
0.10669 -0.011287 0.00020861 1 -0.073039 -0.9718 -0.22419 255 0 0
0.10332 -0.0079805 0.0016859 1 1.7524e-05 -0.00019492 -1 255 0 0
0.102 -0.0085025 0.0016859 1 -0.87923 -0.037002 0.47495 255 0 0
0.10197 -0.0094835 0.0016869 1 3.7174e-05 0.00044262 1 255 0 0
0.10659 -0.0094705 -0.0016739 1 -0.0099553 0.27321 0.9619 255 0 0
0.10209 -0.0065165 0.0016859 1 1.0677e-05 -0.00021116 -1 255 0 0
0.10478 -0.0073445 0.0016859 1 -3.7363e-05 0.00046381 1 255 0 0
0.1053 -0.011258 0.00063751 1 3.5152e-05 -0.00021368 -1 255 0 0
0.10526 -0.0094575 -0.001674 1 2.1001e-05 -0.00019999 -1 255 0 0
0.10666 -0.011286 0.0011767 1 2.7508e-05 -0.00022933 -1 255 0 0
0.10454 -0.010178 -0.0016739 1 -6.3266e-08 1.8418e-06 1 255 0 0
0.1029 -0.010314 -0.0016739 1 -6.3266e-08 1.8418e-06 1 255 0 0
0.10319 -0.011215 -0.00090129 1 0.00064049 0.12377 0.99231 255 0 0
0.1058 -0.011269 -0.00065349 1 0.017238 0.99974 0.01462 255 0 0
0.10572 -0.010718 -0.0016737 1 0.098763 0.92716 0.36141 255 0 0
0.10545 -0.0093615 0.0016869 1 -8.88e-05 0.00024393 1 255 0 0
0.10401 -0.011231 0.00075341 1 -0.005399 0.5031 0.86421 255 0 0
0.10671 -0.0097915 0.0016869 1 -6.3266e-08 1.8418e-06 1 255 0 0
0.1027 -0.011204 0.00094911 1 0.13417 0.042372 -0.99005 255 0 0
0.10209 -0.011027 -0.0016738 1 6.5004e-05 -0.00018802 -1 255 0 0
0.10553 -0.0079975 0.0016859 1 -6.3266e-08 1.8418e-06 1 255 0 0
0.10514 -0.0071705 -0.0016744 1 -0.084892 0.43919 -0.89437 255 0 0
0.1041 -0.0070105 -0.0016745 1 -0.044739 0.27715 -0.95978 255 0 0
0.10501 -0.011127 0.0016869 1 3.0859e-05 -0.0001914 -1 255 0 0
0.11011 -0.0074455 -0.0003256 1 0.055055 -0.30933 -0.94936 255 0 0
0.10775 -0.011275 0.0016869 1 5.0446e-05 0.00058849 1 255 0 0
0.10817 -0.011318 -0.0013761 1 -6.3266e-08 1.8418e-06 1 255 0 0
0.10926 -0.01134 0.0015032 1 -6.3266e-08 1.8418e-06 1 255 0 0
0.10927 -0.0068055 -0.0004731 1 0.021639 0.99977 -0.00091788 255 0 0
0.10799 -0.0081035 0.0014616 1 4.583e-06 0.00015284 1 255 0 0
0.1079 -0.011312 0.00055861 1 -0.0046172 -0.026075 -0.99965 255 0 0
0.10929 -0.0079335 -0.0008372 1 -1.8199e-05 0.00044394 1 255 0 0
0.10888 -0.010399 -0.0016737 1 1.5878e-05 -0.00019539 -1 255 0 0
0.10854 -0.010549 0.0016869 1 -0.088104 0.39013 0.91653 255 0 0
0.1096 -0.011348 -0.00070899 1 -0.00012018 0.00051849 1 255 0 0
0.10707 -0.011296 -0.0015491 1 0.029257 -0.066919 0.99733 255 0 0
0.11022 -0.010778 -0.0013746 1 0.020721 0.99978 0.001067 255 0 0
0.11003 -0.0095425 -0.0010464 1 -6.3266e-08 1.8418e-06 1 255 0 0
0.11012 -0.011236 0.00027191 1 1.9873e-05 -0.00019972 -1 255 0 0
0.11126 -0.010358 0.0004038 1 -0.083394 0.49075 0.8673 255 0 0
0.11018 -0.0086225 -0.0006801 1 0.43828 0.57206 0.6933 255 0 0
0.10987 -0.0098115 0.0012179 1 1.9299e-05 -0.0001993 -1 255 0 0
0.11015 -0.010806 0.0014254 1 1.7758e-05 -0.0001745 -1 255 0 0
0.11056 -0.0092795 0.000747 1 2.7054e-05 -0.00020788 -1 255 0 0
0.10885 -0.0063555 0.0005182 1 0.00991 -0.018959 -0.99977 255 0 0
0.10745 -0.0085145 -0.0016741 1 2.4659e-05 -0.00022339 -1 255 0 0
0.11101 -0.0081345 -0.0001678 1 -6.3266e-08 1.8418e-06 1 255 0 0
0.11196 -0.0089585 -2.9595e-05 1 -6.3266e-08 1.8418e-06 1 255 0 0
0.10968 -0.0078965 0.0006704 1 -6.3302e-05 0.00015626 1 255 0 0
0.11103 -0.0091935 -0.0005041 1 2.5679e-05 -0.00019032 -1 255 0 0
0.10833 -0.0095895 0.0016869 1 -1.0556e-05 0.00046991 1 255 0 0
0.10722 -0.010214 -0.0016738 1 3.5749e-05 -0.00022237 -1 255 0 0
0.10896 -0.011334 0.00045701 1 3.1755e-05 0.00020581 1 255 0 0
0.10761 -0.011306 -0.00043979 1 0.062683 0.99373 0.092547 255 0 0
0.10846 -0.0070965 -0.0009162 1 0.0036882 0.056072 0.99842 255 0 0
0.10886 -0.0085445 0.0012317 1 -0.0010931 0.016418 -0.99986 255 0 0
0.10772 -0.0076405 -0.0014095 1 4.9022e-05 -0.0001879 -1 255 0 0
0.10854 -0.0089125 -0.0014788 1 0.13346 0.45659 0.87961 255 0 0
0.10843 -0.0073025 0.0010072 1 -0.015044 0.36897 0.92932 255 0 0
0.10738 -0.0088545 0.0016869 1 -6.3266e-08 1.8418e-06 1 255 0 0
0.11089 -0.010156 -0.0008831 1 -0.0169 -0.9097 0.41493 255 0 0
0.1118 -0.0099405 -0.0003192 1 2.1249e-05 -0.00019004 -1 255 0 0
0.1094 -0.011332 -0.0016735 1 2.2835e-05 -0.00019896 -1 255 0 0
0.11001 -0.0065285 7.7501e-05 1 -0.021121 -0.99978 0.00018389 255 0 0
-0.12153 -0.0055933 0.0016799 1 3.2284e-05 -0.00020607 -1 255 0 0
-0.12147 -0.0027833 0.0016799 1 2.2049e-05 -0.00017906 -1 255 0 0
-0.12085 -0.0044473 -0.0016808 1 2.2374e-05 -0.00020438 -1 255 0 0
-0.12299 -0.0034783 0.00016068 1 0.018089 0.99947 -0.026963 255 0 0
-0.12267 -0.0019263 0.0016789 1 -6.3266e-08 1.8418e-06 1 255 0 0
-0.12301 -0.0045523 -4.6118e-05 1 0.020696 0.62027 -0.78411 255 0 0
-0.12194 -0.0051513 -0.0016807 1 -0.0001783 0.00045374 1 255 0 0
-0.12296 -0.0020143 0.00057478 1 -0.020841 -0.99978 0.00015561 255 0 0
-0.11853 -0.0058073 -0.0016805 1 9.4348e-06 -0.00019392 -1 255 0 0
-0.12074 -0.0017213 -0.0016813 1 4.2969e-05 -0.00019566 -1 255 0 0
-0.12226 -0.0020113 -0.0016813 1 -0.029629 0.48885 0.87187 255 0 0
-0.12027 -0.0023013 0.0016789 1 1.1754e-05 -0.00020668 -1 255 0 0
-0.12141 -0.0034263 -0.001681 1 -6.3266e-08 1.8418e-06 1 255 0 0
-0.12295 -0.0031693 0.0016799 1 -0.0002044 0.00042732 1 255 0 0
-0.11996 -0.0025853 -0.0016811 1 -0.025747 0.47358 0.88037 255 0 0
-0.11957 -0.0049673 0.0016799 1 -6.3266e-08 1.8418e-06 1 255 0 0
-0.12259 -0.0041083 0.0016799 1 0.020553 0.99979 -0.0022581 255 0 0
-0.12044 -0.0044093 0.0016799 1 1.4974e-05 -0.00020494 -1 255 0 0
-0.12138 -0.0024433 -0.0016812 1 1.3836e-05 -0.00019695 -1 255 0 0
-0.11859 -0.0039373 -0.0016808 1 2.8048e-05 -0.00020015 -1 255 0 0
-0.12256 -0.0062753 0.0016799 1 2.1078e-05 -0.00019463 -1 255 0 0
-0.12303 -0.0055413 -0.0015801 1 -6.3266e-08 1.8418e-06 1 255 0 0
-0.11861 -0.0026063 0.0016799 1 -0.020914 -0.99978 0.00015045 255 0 0
-0.1197 -0.0046203 -0.0016807 1 4.9879e-06 -0.00019562 -1 255 0 0
-0.12297 -0.0026063 -0.0013262 1 -0.10312 0.48063 -0.87084 255 0 0
-0.11811 -0.0039473 0.0016799 1 3.0134e-05 -0.0001773 -1 255 0 0
-0.11958 -0.0058053 -0.0016805 1 -0.00010602 0.00024083 1 255 0 0
-0.12206 -0.0061083 -0.0016805 1 0.25517 0.39578 -0.88218 255 0 0
-0.12016 -0.0059663 0.0016799 1 -0.00012071 0.0004392 1 255 0 0
-0.12276 -0.0052443 0.0016799 1 -0.039856 0.41408 -0.90937 255 0 0
-0.11855 -0.0015313 0.0016789 1 4.6761e-05 -0.0001704 -1 255 0 0
-0.12043 -0.0053803 -0.0016806 1 -0.012204 -0.65001 0.75983 255 0 0
-0.12301 -0.0043613 -0.0012302 1 0.08055 0.32858 -0.94104 255 0 0
-0.1182 -0.0060393 0.0016799 1 -0.020705 -0.99979 0.00012347 255 0 0
-0.12303 -0.0053043 0.00067998 1 2.504e-05 -0.00021284 -1 255 0 0
-0.12253 -0.0034263 -0.001681 1 3.3737e-05 -0.00019619 -1 255 0 0
-0.11965 -0.0013683 0.0016789 1 4.1463e-05 -0.00020932 -1 255 0 0
-0.12032 -0.0033153 0.0016799 1 3.0855e-05 -0.00019126 -1 255 0 0
-0.11924 -0.0032173 -0.001681 1 2.7978e-05 -0.00020514 -1 255 0 0
-0.11824 -0.0029033 -0.001681 1 -6.3266e-08 1.8418e-06 1 255 0 0
-0.12295 -0.0017003 -0.00071372 1 2.4358e-05 -0.00020155 -1 255 0 0
-0.1182 -0.0049433 0.0016799 1 -0.017688 0.1548 -0.98779 255 0 0
-0.11907 -0.0037493 0.0016799 1 -6.3266e-08 1.8418e-06 1 255 0 0
-0.12304 -0.0060873 0.00011338 1 2.2744e-05 -0.00018727 -1 255 0 0
-0.12297 -0.0025483 -0.00020722 1 -6.3266e-08 1.8418e-06 1 255 0 0
-0.12022 -0.0036983 -0.0016809 1 1.1149e-05 -0.00020179 -1 255 0 0
-0.11826 -0.0018573 -0.0016812 1 4.794e-06 -0.00019663 -1 255 0 0
-0.12154 -0.0040393 0.0016799 1 3.0893e-05 -0.00022273 -1 255 0 0
-0.12303 -0.0053513 -0.00055062 1 2.5468e-05 -0.00019016 -1 255 0 0
-0.11642 -0.0061163 0.0016799 1 -0.03044 0.45395 0.8905 255 0 0
-0.11501 -0.0025753 0.0016799 1 -6.3266e-08 1.8418e-06 1 255 0 0
-0.11685 -0.0044643 -0.0016807 1 -0.0038719 0.011222 -0.99993 255 0 0
-0.11711 -0.0056293 -0.0016805 1 2.0945e-05 -0.00019576 -1 255 0 0
-0.11346 -0.0043633 0.0016799 1 -6.3266e-08 1.8418e-06 1 255 0 0
-0.11734 -0.0055523 0.0016799 1 0.00012209 0.00045349 1 255 0 0
-0.11616 -0.0014333 0.0016789 1 0.034742 0.16386 0.98587 255 0 0
-0.1165 -0.0050123 0.0016799 1 -1.3678e-05 0.00050664 1 255 0 0
-0.1136 -0.0057343 0.0016799 1 -0.0001518 0.00045735 1 255 0 0
-0.11534 -0.0046473 0.0016799 1 1.213e-05 -0.00021589 -1 255 0 0
-0.11389 -0.0022083 0.0016799 1 2.2693e-05 -0.00021103 -1 255 0 0
-0.11724 -0.0035773 -0.0016809 1 -8.8386e-05 0.00055696 1 255 0 0
-0.11404 -0.0040953 -0.0016807 1 -0.010738 -0.028875 -0.99953 255 0 0
-0.11319 -0.0029613 0.0016799 1 -6.3266e-08 1.8418e-06 1 255 0 0
-0.11793 -0.0046553 -0.0016807 1 2.7758e-05 -0.00021698 -1 255 0 0
-0.11644 -0.0030633 -0.001681 1 3.9015e-05 -0.0002081 -1 255 0 0
-0.1159 -0.0048893 -0.0016806 1 -5.8758e-05 0.00023927 1 255 0 0
-0.1154 -0.0040733 -0.0016807 1 4.6891e-05 -0.00021191 -1 255 0 0
-0.11384 -0.0025733 -0.001681 1 0.050211 0.46365 -0.8846 255 0 0
-0.11563 -0.0024823 -0.0016811 1 -6.3266e-08 1.8418e-06 1 255 0 0
-0.11612 -0.0028643 0.0016799 1 2.2094e-05 -0.00019694 -1 255 0 0
-0.11461 -0.0035793 0.0016799 1 4.6179e-05 -0.00018884 -1 255 0 0
-0.11416 -0.0054773 -0.0016804 1 -0.0011727 0.3695 0.92923 255 0 0
-0.11501 -0.0031993 -0.0016809 1 -6.3266e-08 1.8418e-06 1 255 0 0
-0.11468 -0.0021173 -0.0016811 1 0.082511 0.50248 -0.86064 255 0 0
-0.11669 -0.0037553 0.0016799 1 1.5967e-05 -0.00020614 -1 255 0 0
-0.11745 -0.0016483 0.0016789 1 -0.074243 -0.99158 -0.1061 255 0 0
-0.1169 -0.0018803 -0.0016812 1 -6.3266e-08 1.8418e-06 1 255 0 0
-0.11722 -0.0028733 0.0016799 1 2.5426e-05 -0.00018842 -1 255 0 0
-0.1159 -0.0015273 -0.0016813 1 -6.3266e-08 1.8418e-06 1 255 0 0
-0.11541 -0.0062903 -0.0016803 1 -0.020757 -0.99978 0.00046454 255 0 0
-0.11467 -0.0056123 0.0016799 1 -6.6025e-05 0.00021415 1 255 0 0
-0.11256 -0.0048093 0.0016799 1 0.06851 0.99561 0.063835 255 0 0
-0.1126 -0.0049173 -0.0016805 1 2.4228e-05 -0.00020235 -1 255 0 0
-0.11241 -0.0021923 -0.001681 1 -6.3266e-08 1.8418e-06 1 255 0 0
-0.10976 -0.0024713 0.0016799 1 2.4853e-05 -0.0001978 -1 255 0 0
-0.10875 -0.0031253 -0.0016808 1 2.9423e-05 -0.00019311 -1 255 0 0
-0.10897 -0.0043753 -0.0016805 1 -0.019828 0.32112 0.94683 255 0 0
-0.1112 -0.0030033 -0.0016808 1 -6.3266e-08 1.8418e-06 1 255 0 0
-0.10885 -0.0018003 -0.001681 1 2.9787e-05 -0.00018405 -1 255 0 0
-0.11013 -0.0041973 0.0016799 1 2.9585e-05 -0.00019607 -1 255 0 0
-0.1089 -0.0040123 0.0016799 1 -6.3266e-08 1.8418e-06 1 255 0 0
-0.11123 -0.0039503 -0.0016807 1 -0.020441 -0.059994 -0.99799 255 0 0
-0.10994 -0.0059833 0.0016799 1 0.0002239 0.00053833 1 255 0 0
-0.10899 -0.0049773 0.0016799 1 -0.00056394 0.076224 0.99709 255 0 0
-0.10968 -0.0034653 -0.0016807 1 0.06965 0.064042 -0.99551 255 0 0
-0.1115 -0.0017243 -0.0016811 1 -6.3266e-08 1.8418e-06 1 255 0 0
-0.11175 -0.0055653 0.0016799 1 0.020134 0.9998 -0.00071322 255 0 0
-0.11084 -0.0048493 0.0016799 1 -6.3266e-08 1.8418e-06 1 255 0 0
-0.10873 -0.0055593 -0.0016803 1 -0.0077011 0.06471 -0.99787 255 0 0
-0.1085 -0.0024173 0.0016799 1 -0.00096544 -0.0036439 0.99999 255 0 0
-0.11022 -0.0020303 -0.001681 1 -0.034593 0.82707 -0.56104 255 0 0
-0.11264 -0.0061163 0.0016799 1 -6.3266e-08 1.8418e-06 1 255 0 0
-0.10968 -0.0053863 -0.0016803 1 -0.045007 0.41694 0.90782 255 0 0
-0.11151 -0.0052703 -0.0016804 1 4.4687e-06 -0.00020647 -1 255 0 0
-0.11281 -0.0037563 -0.0016807 1 4.4201e-05 -0.00014719 -1 255 0 0
-0.11048 -0.0047603 -0.0016805 1 -6.3266e-08 1.8418e-06 1 255 0 0
-0.11239 -0.0021183 0.0016799 1 -0.0026268 0.89422 0.44762 255 0 0
-0.11141 -0.0034523 0.0016799 1 0.0057675 -0.98986 -0.14192 255 0 0
-0.11072 -0.0026483 0.0016799 1 -6.3266e-08 1.8418e-06 1 255 0 0
-0.11254 -0.0038673 0.0016799 1 0.3315 0.34217 0.87922 255 0 0
-0.11139 -0.0014453 0.0016799 1 -7.8829e-05 0.00021727 1 255 0 0
-0.10435 -0.0025603 0.0016799 1 0.0083012 -0.022891 -0.9997 255 0 0
-0.10664 -0.0047773 -0.0016804 1 -0.079018 0.46917 0.87957 255 0 0
-0.1073 -0.0035343 0.0016799 1 0.082344 0.70531 -0.7041 255 0 0
-0.10736 -0.0025973 -0.0016808 1 2.482e-05 -0.00020783 -1 255 0 0
-0.10558 -0.0019903 0.0016799 1 -6.3266e-08 1.8418e-06 1 255 0 0
-0.10472 -0.0054673 0.0016809 1 2.0331e-05 -0.00018897 -1 255 0 0
-0.10568 -0.0060783 -0.0016801 1 3.4101e-05 -0.00021842 -1 255 0 0
-0.10636 -0.0028243 -0.0016807 1 1.7124e-05 -0.00019913 -1 255 0 0
-0.10757 -0.0042873 -0.0016805 1 2.8883e-05 -0.00019887 -1 255 0 0
-0.10757 -0.0056403 -0.0016802 1 -5.2682e-05 0.00030802 1 255 0 0
-0.10636 -0.0038913 0.0016799 1 -0.027549 0.97453 0.22257 255 0 0
-0.10672 -0.0060693 -0.0016801 1 -2.9893e-06 -0.00020942 -1 255 0 0
-0.10518 -0.0038833 0.0016799 1 3.2812e-05 -0.00020892 -1 255 0 0
-0.10565 -0.0043053 -0.0016804 1 3.6678e-05 -0.00019234 -1 255 0 0
-0.10443 -0.0052893 -0.0016802 1 -6.3266e-08 1.8418e-06 1 255 0 0
-0.10322 -0.0041703 -0.0016804 1 4.4269e-05 -0.00018614 -1 255 0 0
-0.10738 -0.0020683 0.0016799 1 0.00029982 -0.0054098 0.99999 255 0 0
-0.10446 -0.0015553 0.0016799 1 -0.022168 -0.81919 -0.5731 255 0 0
-0.10569 -0.0047473 0.0016799 1 1.6653e-05 -0.0002082 -1 255 0 0
-0.10752 -0.0045813 0.0016799 1 0.091291 0.30142 -0.94911 255 0 0
-0.10778 -0.0059703 0.0016809 1 1.5359e-05 -0.00018416 -1 255 0 0
-0.10586 -0.0058793 0.0016809 1 -0.052836 -0.38682 -0.92064 255 0 0
-0.10473 -0.0037563 -0.0016805 1 8.5519e-05 0.00035026 1 255 0 0
-0.10552 -0.0021143 -0.0016809 1 0.00011079 0.00034314 1 255 0 0
-0.10319 -0.0034653 0.0016799 1 2.565e-05 -0.00019228 -1 255 0 0
-0.10674 -0.0054953 0.0016799 1 2.4402e-05 0.00026987 1 255 0 0
-0.10363 -0.0052223 0.0016799 1 -6.3266e-08 1.8418e-06 1 255 0 0
-0.10669 -0.0017393 -0.001681 1 -6.3266e-08 1.8418e-06 1 255 0 0
-0.10636 -0.0028123 0.0016799 1 -1.4522e-05 0.00023293 1 255 0 0
-0.10449 -0.0025033 -0.0016808 1 0.18787 0.20828 0.95986 255 0 0
-0.10417 -0.0044053 0.0016799 1 0.0001694 0.00042618 1 255 0 0
-0.10346 -0.0058673 -0.0016801 1 -3.8511e-07 -0.00016201 -1 255 0 0
-0.10355 -0.0032233 -0.0016806 1 -6.2858e-06 0.00056388 1 255 0 0
-0.10698 -0.0035473 -0.0016806 1 1.362e-05 -0.00021233 -1 255 0 0
-0.098793 -0.0048673 -0.0016802 1 5.8153e-06 -0.00021086 -1 255 0 0
-0.10286 -0.0019703 0.0016799 1 -7.4799e-05 0.00015742 1 255 0 0
-0.10144 -0.0030323 -0.0016806 1 -9.9282e-05 0.00031821 1 255 0 0
-0.098566 -0.0037613 -0.0016804 1 -6.3266e-08 1.8418e-06 1 255 0 0
-0.1024 -0.0060423 -0.00168 1 4.972e-06 -0.00021616 -1 255 0 0
-0.10192 -0.0029473 0.0016799 1 -0.044412 0.19351 0.98009 255 0 0
-0.10002 -0.0014373 0.0016799 1 2.7813e-05 -0.00020519 -1 255 0 0
-0.1006 -0.0036213 -0.0016804 1 -6.3266e-08 1.8418e-06 1 255 0 0
-0.10054 -0.0060143 -0.00168 1 2.6035e-05 -0.00017623 -1 255 0 0
-0.10259 -0.0024793 -0.0016807 1 0.022707 0.72335 0.69011 255 0 0
-0.10107 -0.0051183 0.0016809 1 2.5885e-05 -0.00017503 -1 255 0 0
-0.099503 -0.0036393 -0.0016804 1 -6.3266e-08 1.8418e-06 1 255 0 0
-0.10076 -0.0014163 -0.0016809 1 -0.00014313 0.00032752 1 255 0 0
-0.1019 -0.0017163 -0.0016809 1 3.0176e-05 -0.00022516 -1 255 0 0
-0.10036 -0.0048713 -0.0016802 1 3.3879e-05 -0.00019128 -1 255 0 0
-0.099643 -0.0050723 0.0016809 1 -1.0743e-05 0.00050684 1 255 0 0
-0.099512 -0.0054903 -0.00168 1 -4.9496e-05 0.00033434 1 255 0 0
-0.10121 -0.0038953 0.0016799 1 0.38387 0.48282 -0.7871 255 0 0
-0.09829 -0.0024203 0.0016799 1 2.1186e-05 -0.00020171 -1 255 0 0
-0.098053 -0.0063203 0.0016809 1 -0.079921 0.39499 -0.9152 255 0 0
-0.10295 -0.0050713 -0.0016802 1 -6.3266e-08 1.8418e-06 1 255 0 0
-0.099146 -0.0041093 0.0016799 1 -0.00019542 0.00031085 1 255 0 0
-0.1007 -0.0023683 -0.0016807 1 -0.00015891 0.00017108 1 255 0 0
-0.10016 -0.0037443 0.0016799 1 0.029253 0.087141 0.99577 255 0 0
-0.10154 -0.0020553 0.0016799 1 -4.8271e-05 0.0002732 1 255 0 0
-0.098385 -0.0047863 0.0016809 1 0.0044237 0.10251 0.99472 255 0 0
-0.099242 -0.0031623 0.0016799 1 -0.00026001 0.00041972 1 255 0 0
-0.10067 -0.0025493 0.0016799 1 -0.1058 0.48995 0.86531 255 0 0
-0.10264 -0.0048593 0.0016799 1 5.8854e-05 -0.00021414 -1 255 0 0
-0.098921 -0.0057443 0.0016809 1 -0.82971 0.003193 0.55819 255 0 0
-0.10274 -0.0060953 0.0016809 1 -0.00013614 0.00029934 1 255 0 0
-0.10154 -0.0055703 -0.0016801 1 2.5127e-05 -0.0001982 -1 255 0 0
-0.099753 -0.0024753 -0.0016806 1 -6.3266e-08 1.8418e-06 1 255 0 0
-0.10216 -0.0040633 -0.0016804 1 -6.3266e-08 1.8418e-06 1 255 0 0
-0.098103 -0.0028613 -0.0016805 1 -0.00015444 0.00019439 1 255 0 0
-0.098671 -0.0020803 -0.0016807 1 -1.0045e-05 0.00048321 1 255 0 0
-0.10231 -0.0039743 0.0016799 1 -0.00017353 0.00018567 1 255 0 0
-0.10133 -0.0045233 -0.0016803 1 -4.6285e-05 0.00024695 1 255 0 0
-0.094344 -0.0034733 -0.0016803 1 -0.04098 0.41177 -0.91037 255 0 0
-0.093554 -0.0045633 -0.0016801 1 -0.12427 0.94161 0.31294 255 0 0
-0.096305 -0.0017513 0.0016799 1 0.0099677 0.017289 -0.9998 255 0 0
-0.09377 -0.0013793 -0.0016807 1 -0.011377 -0.9922 -0.12414 255 0 0
-0.095585 -0.0044613 0.0016809 1 -0.018396 -0.7033 0.71065 255 0 0
-0.096808 -0.0040563 0.0016799 1 8.3202e-06 0.0003932 1 255 0 0
-0.095037 -0.0042403 -0.0016802 1 -8.2081e-05 0.00049789 1 255 0 0
-0.097882 -0.0039353 0.0016799 1 3.09e-05 0.00049753 1 255 0 0
-0.09379 -0.0049283 0.0016809 1 1.3768e-05 -0.0001843 -1 255 0 0
-0.09405 -0.0058673 0.0016809 1 2.2936e-05 -0.00019281 -1 255 0 0
-0.093329 -0.0020653 0.0016799 1 -6.3266e-08 1.8418e-06 1 255 0 0
-0.095636 -0.0016793 -0.0016807 1 -0.00010072 0.00025677 1 255 0 0
-0.097099 -0.0029613 0.0016799 1 -0.020504 -0.99979 -0.0021986 255 0 0
-0.094309 -0.0054423 -0.0016799 1 -0.0058028 -0.62201 -0.78299 255 0 0
-0.096686 -0.0057293 0.0016809 1 -0.017572 0.19054 0.98152 255 0 0
-0.095143 -0.0033353 0.0016799 1 2.6284e-05 -0.00021246 -1 255 0 0
-0.095177 -0.0023533 0.0016799 1 -1.1289e-05 -0.00021291 -1 255 0 0
-0.09605 -0.0061083 -0.0016798 1 -0.02055 -0.99979 0.00027087 255 0 0
-0.097999 -0.0061963 -0.0016799 1 -0.079007 0.55407 -0.82871 255 0 0
-0.097573 -0.0046423 -0.0016802 1 -1.0225e-06 -0.00020679 -1 255 0 0
-0.09563 -0.0031493 -0.0016804 1 5.2277e-05 -0.00017338 -1 255 0 0
-0.095615 -0.0061213 0.0016809 1 3.1473e-05 -0.00020676 -1 255 0 0
-0.094369 -0.0022743 -0.0016805 1 2.5818e-05 0.00051512 1 255 0 0
-0.093212 -0.0024563 -0.0016805 1 -6.3266e-08 1.8418e-06 1 255 0 0
-0.093895 -0.0029193 0.0016799 1 0.015416 0.53612 -0.844 255 0 0
-0.097362 -0.0049113 0.0016809 1 -0.00015271 0.00028716 1 255 0 0
-0.097073 -0.0056143 -0.00168 1 -0.020589 -0.99979 0.00023638 255 0 0
-0.096528 -0.0022073 -0.0016806 1 3.0367e-06 -0.00019323 -1 255 0 0
-0.097026 -0.0037023 -0.0016803 1 4.8293e-05 -0.00021153 -1 255 0 0
-0.095015 -0.0052433 0.0016809 1 -0.049785 0.22437 -0.97323 255 0 0
-0.09611 -0.0043273 -0.0016802 1 2.5513e-05 -0.00019632 -1 255 0 0
-0.093337 -0.0055483 -0.0016799 1 -0.036423 0.33903 0.94007 255 0 0
-0.097337 -0.0019453 0.0016799 1 -6.3266e-08 1.8418e-06 1 255 0 0
-0.094611 -0.0041243 0.0016809 1 2.8532e-05 0.00047344 1 255 0 0
-0.093438 -0.0039323 0.0016809 1 5.0922e-05 0.00019391 1 255 0 0
-0.092352 -0.0037463 0.0016799 1 -0.020814 -0.99978 0.00017158 255 0 0
-0.090092 -0.0032333 0.0016799 1 0.00010326 0.00034278 1 255 0 0
-0.088918 -0.0033713 -0.0016802 1 1.4038e-05 -0.00017421 -1 255 0 0
-0.088474 -0.0052783 -0.0016798 1 0.0002135 0.00098247 1 255 0 0
-0.089005 -0.0023003 -0.0016804 1 2.1283e-05 -0.00023291 -1 255 0 0
-0.089468 -0.0051733 0.0016809 1 -6.3266e-08 1.8418e-06 1 255 0 0
-0.091732 -0.0031173 -0.0016803 1 0.0019846 0.46518 0.88521 255 0 0
-0.092425 -0.0050293 -0.00168 1 1.7505e-05 -0.00019529 -1 255 0 0
-0.09063 -0.0030143 -0.0016803 1 3.186e-05 -0.00021605 -1 255 0 0
-0.090204 -0.0045013 -0.00168 1 2.481e-06 0.00045755 1 255 0 0
-0.090664 -0.0019383 0.0016799 1 0.0069313 -0.49 -0.87169 255 0 0
-0.091197 -0.0019223 -0.0016805 1 3.3997e-05 -0.00019763 -1 255 0 0
-0.08954 -0.0040753 0.0016809 1 -0.030499 -0.42691 -0.90378 255 0 0
-0.091733 -0.0059403 0.0016809 1 0.24335 0.41416 0.87707 255 0 0
-0.091576 -0.0015843 0.0016799 1 -0.016796 -0.68509 0.72826 255 0 0
-0.090734 -0.0039353 0.0016809 1 -6.3266e-08 1.8418e-06 1 255 0 0
-0.091418 -0.0047863 0.0016809 1 -6.3266e-08 1.8418e-06 1 255 0 0
-0.092618 -0.0049413 0.0016809 1 -0.024458 -0.88374 -0.46734 255 0 0
-0.089335 -0.0059273 -0.0016797 1 2.1249e-05 -0.00021739 -1 255 0 0
-0.092252 -0.0061483 -0.0016797 1 -3.2907e-06 -0.00020276 -1 255 0 0
-0.092152 -0.0022073 -0.0016805 1 -0.0909 0.99379 -0.064137 255 0 0
-0.091268 -0.0039603 -0.0016801 1 -0.025091 0.47559 0.87931 255 0 0
-0.092802 -0.0028903 0.0016799 1 2.3843e-05 -0.00017594 -1 255 0 0
-0.09108 -0.0028213 0.0016799 1 1.736e-05 -0.00020214 -1 255 0 0
-0.088393 -0.0035123 0.0016809 1 1.5762e-05 -0.00018455 -1 255 0 0
-0.088775 -0.0025943 0.0016799 1 0.013044 -0.8328 0.55342 255 0 0
-0.088535 -0.0045163 0.0016809 1 2.0127e-05 -0.00022114 -1 255 0 0
-0.090469 -0.0051523 0.0016809 1 2.2738e-05 -0.00017258 -1 255 0 0
-0.092682 -0.0033833 -0.0016803 1 4.7139e-05 -0.00021292 -1 255 0 0
-0.091402 -0.0048953 -0.00168 1 -0.02069 -0.99979 0.00019018 255 0 0
-0.090391 -0.0054583 -0.0016798 1 2.0171e-05 -0.00019629 -1 255 0 0
-0.08916 -0.0015993 0.0016799 1 3.6821e-05 -0.00020081 -1 255 0 0
-0.089789 -0.0023183 0.0016799 1 -0.021688 -0.19026 0.98149 255 0 0
-0.0899 -0.0061113 0.0016809 1 -0.020998 -0.99978 0.00019408 255 0 0
-0.083153 -0.0033473 0.0016809 1 1.6228e-05 -0.00021681 -1 255 0 0
-0.08563 -0.0035423 -0.0016801 1 1.02e-05 -0.00019904 -1 255 0 0
-0.085617 -0.0057183 -0.0016796 1 -5.4198e-05 0.00053526 1 255 0 0
-0.084608 -0.0046293 -0.0016798 1 3.2188e-05 -0.00019078 -1 255 0 0
-0.083682 -0.0043593 -0.0016799 1 -4.7809e-05 0.0005202 1 255 0 0
-0.087992 -0.0057973 0.0016809 1 -0.01884 -0.99981 0.004891 255 0 0
-0.086558 -0.0054123 -0.0016797 1 -0.0067353 -0.033023 0.99943 255 0 0
-0.083706 -0.0018563 0.0016799 1 -0.05527 -0.99118 -0.12049 255 0 0
-0.085182 -0.0022023 -0.0016803 1 -9.1092e-05 0.00032202 1 255 0 0
-0.086505 -0.0045183 0.0016809 1 1.2568e-05 -0.00020504 -1 255 0 0
-0.087352 -0.0023503 -0.0016804 1 9.9831e-05 0.00040926 1 255 0 0
-0.083831 -0.0062993 0.0016809 1 0.066463 0.39725 -0.9153 255 0 0
-0.087585 -0.0040653 -0.00168 1 -6.3266e-08 1.8418e-06 1 255 0 0
-0.084592 -0.0037763 0.0016809 1 0.00011686 0.00043372 1 255 0 0
-0.087516 -0.0051953 -0.0016798 1 -2.2754e-05 0.00016278 1 255 0 0
-0.084083 -0.0030643 -0.0016801 1 2.4011e-05 -0.00020093 -1 255 0 0
-0.087333 -0.0017573 0.0016799 1 -0.0059882 -0.089729 0.99595 255 0 0
-0.084648 -0.0052963 0.0016809 1 0.0029457 -0.90905 0.41668 255 0 0
-0.086563 -0.0030433 -0.0016802 1 -0.0019694 -0.004206 -0.99999 255 0 0
-0.083401 -0.0046293 0.0016809 1 -0.00012027 0.00054439 1 255 0 0
-0.086564 -0.0042323 -0.00168 1 3.6048e-05 -0.00020515 -1 255 0 0
-0.085607 -0.0049413 0.0016809 1 -0.067134 -0.74851 -0.65971 255 0 0
-0.085883 -0.0031463 0.0016809 1 2.8285e-05 -0.00019164 -1 255 0 0
-0.084262 -0.0018073 -0.0016804 1 0.011581 -0.09577 -0.99534 255 0 0
-0.087052 -0.0063113 0.0016809 1 4.6382e-05 -0.00018744 -1 255 0 0
-0.083412 -0.0054483 -0.0016796 1 5.048e-05 -0.00022019 -1 255 0 0
-0.08585 -0.0060083 0.0016809 1 -6.3266e-08 1.8418e-06 1 255 0 0
-0.085663 -0.0047513 -0.0016798 1 -6.3266e-08 1.8418e-06 1 255 0 0
-0.084632 -0.0058433 -0.0016796 1 2.8083e-05 -0.00018439 -1 255 0 0
-0.085223 -0.0020273 0.0016799 1 -0.0082505 -0.15826 0.98736 255 0 0
-0.086994 -0.0029403 0.0016799 1 3.5259e-05 -0.00017486 -1 255 0 0
-0.086265 -0.0020073 -0.0016804 1 -0.020634 -0.99979 0.00026575 255 0 0
-0.087495 -0.0046593 0.0016809 1 -6.3266e-08 1.8418e-06 1 255 0 0
-0.086285 -0.0022283 0.0016799 1 -5.7284e-05 0.00017111 1 255 0 0
-0.084678 -0.0028103 0.0016809 1 -0.019972 -0.045767 -0.99875 255 0 0
-0.079045 -0.0043873 -0.0016797 1 0.0095086 0.99446 -0.10468 255 0 0
-0.082616 -0.0025683 -0.0016802 1 -6.3266e-08 1.8418e-06 1 255 0 0
-0.081109 -0.0025103 0.0016809 1 3.6469e-05 -0.00020341 -1 255 0 0
-0.079406 -0.0058803 -0.0016795 1 -0.020726 -0.99979 -4.1876e-05 255 0 0
-0.081539 -0.0046833 0.0016809 1 -5.9315e-05 0.0002058 1 255 0 0
-0.078102 -0.0022053 0.0016809 1 6.8463e-06 -0.00018008 -1 255 0 0
-0.07954 -0.0034563 0.0016809 1 -0.00022433 0.00044359 1 255 0 0
-0.080339 -0.0047703 -0.0016797 1 -0.00027699 0.00036666 1 255 0 0
-0.081546 -0.0034653 0.0016809 1 -0.046013 -0.99751 0.053522 255 0 0
-0.080909 -0.0061063 0.0016809 1 -6.0665e-05 0.00042262 1 255 0 0
-0.079807 -0.0034613 -0.0016799 1 0.0001158 0.00037498 1 255 0 0
-0.0808 -0.0038273 -0.0016799 1 -0.092795 0.55495 0.82669 255 0 0
-0.081928 -0.0019763 0.0016799 1 1.5104e-05 -0.00020106 -1 255 0 0
-0.080328 -0.0024233 -0.0016802 1 -2.8479e-05 0.00016713 1 255 0 0
-0.079039 -0.0055873 0.0016809 1 -0.020857 -0.99978 5.4521e-05 255 0 0
-0.082363 -0.0046363 -0.0016798 1 -1.9708e-05 -0.00019952 -1 255 0 0
-0.081352 -0.0058493 -0.0016795 1 -6.3266e-08 1.8418e-06 1 255 0 0
-0.082798 -0.0058143 0.0016809 1 -6.3266e-08 1.8418e-06 1 255 0 0
-0.080134 -0.0053623 0.0016809 1 -0.034711 -0.94408 0.3279 255 0 0
-0.078973 -0.0029563 -0.00168 1 1.5278e-05 -0.00021576 -1 255 0 0
-0.08132 -0.0046623 -0.0016797 1 -0.020743 -0.99978 0.00035719 255 0 0
-0.078749 -0.0013773 -0.0016803 1 3.8506e-06 -0.00017737 -1 255 0 0
-0.082842 -0.0035323 -0.00168 1 -0.022636 -0.077279 0.99675 255 0 0
-0.082322 -0.0041143 0.0016809 1 -6.3266e-08 1.8418e-06 1 255 0 0
-0.080174 -0.0017323 0.0016799 1 -6.3266e-08 1.8418e-06 1 255 0 0
-0.080343 -0.0043813 0.0016809 1 2.9662e-06 -0.00018586 -1 255 0 0
-0.081833 -0.0032453 -0.00168 1 0.03923 -0.34466 0.93791 255 0 0
-0.082574 -0.0059243 -0.0016795 1 -0.30742 0.019789 -0.95137 255 0 0
-0.078286 -0.0036853 -0.0016799 1 0.21583 0.4198 0.88158 255 0 0
-0.078287 -0.0048583 0.0016809 1 3.1908e-05 -0.00021617 -1 255 0 0
-0.079084 -0.0043313 0.0016809 1 -6.3266e-08 1.8418e-06 1 255 0 0
-0.079058 -0.0022603 0.0016809 1 0.088651 0.13279 -0.98717 255 0 0
-0.079676 -0.0017003 -0.0016803 1 -0.00020415 0.00034704 1 255 0 0
-0.078461 -0.0032843 0.0016809 1 2.3157e-05 -0.00019289 -1 255 0 0
-0.081469 -0.0020793 -0.0016803 1 0.029513 0.65412 -0.75581 255 0 0
-0.080501 -0.0034173 0.0016809 1 -0.094898 0.4671 -0.8791 255 0 0
-0.073525 -0.0015863 -0.0016801 1 -6.3266e-08 1.8418e-06 1 255 0 0
-0.077527 -0.0038643 0.0016809 1 -0.0097668 0.67965 -0.73348 255 0 0
-0.074773 -0.0026913 0.0016809 1 1.8088e-05 -0.00018675 -1 255 0 0
-0.074554 -0.0046073 0.0016809 1 -0.024377 -0.056624 0.9981 255 0 0
-0.073712 -0.0019373 0.0016809 1 3.1292e-05 -0.00020402 -1 255 0 0
-0.076659 -0.0059803 0.0016809 1 -0.019005 -0.9998 0.0059878 255 0 0
-0.074852 -0.0017593 -0.0016801 1 2.4925e-05 -0.00017548 -1 255 0 0
-0.074899 -0.0054503 -0.0016794 1 0.0088116 0.99147 0.13004 255 0 0
-0.076855 -0.0037653 -0.0016798 1 -6.3266e-08 1.8418e-06 1 255 0 0
-0.076016 -0.0041103 0.0016809 1 4.552e-05 -0.00018432 -1 255 0 0
