ply
format ascii 1.0
comment author Paulo Abelha (p.abelha at abdn ac uk)
element vertex 727
property float x
property float y
property float z
property int segm
property float nx
property float ny
property float nz
property uchar red
property uchar green
property uchar blue
end_header
0.019185 -0.00026465 -0.0012218 2 7.4351e-05 1 -7.4068e-06 0 255 0
0.020245 0.0011352 0.00090589 2 -0.082751 -0.99574 -0.040702 0 255 0
0.019415 0.0011352 -0.0011588 2 0.022214 0.97123 0.23709 0 255 0
0.017905 -0.00026446 0.0015453 2 0.00014093 -0.00028451 1 0 255 0
0.017305 0.0034353 -0.0016808 2 0.0004009 0.0095444 0.99995 0 255 0
0.018665 0.0017354 0.0013508 2 0.015685 -0.00014564 0.99988 0 255 0
0.018105 -0.0012646 -0.0014923 2 0.0027098 -0.00030454 1 0 255 0
0.022115 -0.001265 0.00092731 2 6.7333e-05 -0.00031734 1 0 255 0
0.021265 0.003135 -0.00093492 2 -9.8287e-05 0.00031184 -1 0 255 0
0.020225 0.0029351 0.00038508 2 -9.9067e-05 0.00030384 -1 0 255 0
0.019855 0.0020352 -0.0010472 2 0.002494 0.00033542 -1 0 255 0
0.020245 0.0018353 0.00014349 2 0.0025027 0.00030188 -1 0 255 0
0.020095 3.5279e-05 -0.0009929 2 0.00010322 -0.00031765 1 0 255 0
0.018445 0.0008353 0.0014083 2 0.0026988 -0.00029904 1 0 255 0
0.019474 -0.0013649 -0.0011526 2 0.0041292 0.5947 -0.80394 0 255 0
0.017335 0.00063544 0.0016856 2 8.2205e-05 -0.0003121 1 0 255 0
0.018765 0.0030354 -0.0013178 2 0.018245 -0.5788 0.81527 0 255 0
0.021825 -0.00026481 0.000932 2 -9.4825e-05 0.00030493 -1 0 255 0
0.018805 0.0020353 -0.0013101 2 -9.7866e-05 0.00029867 -1 0 255 0
0.021065 0.0026353 0.00094439 2 0.022651 0.11473 -0.99314 0 255 0
0.021105 -0.0013648 0.00094311 2 0.0026799 -0.00028696 1 0 255 0
0.017485 0.0018353 0.0016471 2 -8.9838e-05 0.00030483 -1 0 255 0
0.020894 -0.001365 -0.00094279 2 0.0027069 -0.00031768 1 0 255 0
0.020775 0.0017351 -0.00094321 2 -9.1932e-05 0.00030525 -1 0 255 0
0.021445 0.001135 0.00093819 2 0.044693 0.99897 -0.0085086 0 255 0
0.019635 0.0021353 0.0011091 2 -0.0001022 0.00031928 -1 0 255 0
0.019635 -0.0012646 0.0011153 2 0.00010704 -0.00027364 1 0 255 0
0.017875 0.0019354 -0.0015429 2 0.00011832 -0.00031666 1 0 255 0
0.020265 -0.00046481 0.00028631 2 9.8324e-05 -0.00030482 1 0 255 0
0.018585 0.0028354 0.0013693 2 -7.4351e-05 -1 7.4068e-06 0 255 0
0.018605 -0.00096475 0.0013723 2 0.0025261 0.00034336 -1 0 255 0
0.017255 0.0029352 0.0017021 2 0.0025076 0.00034498 -1 0 255 0
0.026505 0.0022348 0.00085889 2 0.0025174 0.0003602 -1 0 255 0
0.022175 0.0029351 -0.00092082 2 0.00249 0.00035004 -1 0 255 0
0.025915 -6.5177e-05 0.00086781 2 8.9944e-05 -0.00029284 1 0 255 0
0.024085 0.00063476 -0.0008922 2 -9.4913e-05 0.00031268 -1 0 255 0
0.025345 0.00073464 0.00087689 2 0.01534 0.85875 -0.51217 0 255 0
0.022475 0.001335 0.00092209 2 0.0026539 -0.00027798 1 0 255 0
0.023895 0.0014348 0.00089979 2 0.051326 0.56002 -0.82688 0 255 0
0.023524 -0.00016522 -0.0009014 2 0.0027055 -0.00029133 1 0 255 0
0.024415 -0.000665 -0.00088769 2 -0.083842 0.83296 -0.54693 0 255 0
0.025915 -0.00066522 -0.00086449 2 6.2817e-05 -0.00029073 1 0 255 0
0.023334 0.00053479 0.0009084 2 0.025712 -0.99821 -0.054091 0 255 0
0.024805 -0.0012652 0.00088501 2 0.025712 -0.016016 0.99954 0 255 0
0.026395 0.0035346 0.00086067 2 -9.0851e-05 0.00030756 -1 0 255 0
0.027095 -0.00076536 0.00084911 2 0.0025056 0.0003413 -1 0 255 0
0.025095 0.002535 0.00088109 2 0.0025251 0.00032641 -1 0 255 0
0.022545 0.002635 0.00092118 2 0.0025041 0.00035107 -1 0 255 0
0.025214 -0.0013653 -0.00087569 2 9.1024e-05 -0.00031448 1 0 255 0
0.024525 3.4898e-05 0.0008896 2 9.6771e-05 -0.0003197 1 0 255 0
0.023624 -0.0013652 -0.00090038 2 -9.7319e-05 0.00030752 -1 0 255 0
0.025585 0.00053483 -0.0008691 2 0.00011825 -0.00030708 1 0 255 0
0.026095 0.0014346 -0.00086061 2 -9.739e-05 0.00030787 -1 0 255 0
0.025175 0.0031346 -0.00087422 2 0.047779 0.99875 -0.014404 0 255 0
0.024785 0.0014349 -0.00088101 2 0.019248 -0.0055334 0.9998 0 255 0
0.024065 0.0024349 -0.00089162 2 0.00010191 -0.00031643 1 0 255 0
0.022415 0.00033495 -0.0009183 2 0.014045 0.00045704 -0.9999 0 255 0
0.023655 0.0028348 0.00090378 2 0.048486 -0.96829 -0.2451 0 255 0
0.022625 -0.001165 -0.00091569 2 0.0024977 0.00030698 -1 0 255 0
0.026535 0.00023467 -0.0008545 2 -0.10106 -0.81417 -0.57175 0 255 0
0.026685 0.0012349 0.00085579 2 -7.4351e-05 -1 7.4068e-06 0 255 0
0.025565 0.0017348 0.00087359 2 -9.2561e-05 0.00030632 -1 0 255 0
0.023655 -0.00056513 0.0009032 2 -0.00010469 0.00030318 -1 0 255 0
0.023215 0.001835 -0.00090531 2 0.015474 0.00043376 -0.99988 0 255 0
0.026335 0.0024348 -0.00085641 2 0.0027083 -0.00027575 1 0 255 0
0.026556 0.0033348 -0.00085273 2 0.015704 -0.029291 -0.99945 0 255 0
0.024295 0.0034349 -0.00088772 2 -9.4458e-05 0.00030276 -1 0 255 0
0.028905 0.0019344 0.00082109 2 0.036583 -0.99873 -0.034512 0 255 0
0.030565 0.0021343 -0.00079091 2 -9.9263e-05 0.0003001 -1 0 255 0
0.028635 -0.00046554 -0.000822 2 7.5574e-05 -0.00028681 1 0 255 0
0.030885 -0.0011656 -0.00078749 2 -9.3516e-05 0.00031473 -1 0 255 0
0.031345 0.00023431 -0.0007797 2 0.031907 0.99065 0.13267 0 255 0
0.031945 0.00073447 0.0007732 2 -9.5583e-05 0.00030984 -1 0 255 0
0.029035 0.0022346 -0.00081472 2 0.0027467 -0.00026879 1 0 255 0
0.029625 0.0033344 -0.00080512 2 6.5917e-05 -0.00034156 1 0 255 0
0.029805 0.0011345 -0.00080321 2 0.0025203 0.00031937 -1 0 255 0
0.028155 -0.00076522 0.00083251 2 0.0025096 0.00033051 -1 0 255 0
0.027345 0.00023469 0.0008454 2 -9.7963e-05 0.00030774 -1 0 255 0
0.027295 0.0014348 -0.00084211 2 0.0026914 -0.00029149 1 0 255 0
0.030205 0.00083434 0.00080049 2 -0.010605 -0.68243 0.73086 0 255 0
0.032055 0.0025344 0.00077168 2 7.8061e-05 -0.00030749 1 0 255 0
0.028655 0.0033345 0.00082528 2 0.031233 -0.99939 -0.015264 0 255 0
0.030055 -0.00036559 -0.00079989 2 -9.2945e-05 0.00031037 -1 0 255 0
0.027505 0.0030347 -0.00083802 2 -9.628e-05 0.00030573 -1 0 255 0
0.028655 0.0012347 -0.000821 2 -9.3204e-05 0.00031065 -1 0 255 0
0.031195 0.0028342 -0.00078091 2 0.067248 -0.30588 0.94969 0 255 0
0.027695 0.0030345 0.00084028 2 -9.6437e-05 0.00031869 -1 0 255 0
0.030485 0.0026344 0.00079639 2 -9.7075e-05 0.00030696 -1 0 255 0
0.027975 0.0021344 -0.00083112 2 0.24192 0.0019533 -0.97029 0 255 0
0.031755 -0.0006656 -0.00077369 2 8.1207e-05 -0.0003014 1 0 255 0
0.029035 -0.00016544 0.00081871 2 -0.041081 0.65577 -0.75385 0 255 0
0.029685 -0.0011655 0.00080841 2 8.7954e-05 -0.00030181 1 0 255 0
0.027615 0.00033452 -0.0008375 2 0.0026913 -0.00027714 1 0 255 0
0.028415 0.00063446 0.0008285 2 0.0026941 -0.00029179 1 0 255 0
0.030845 0.0035346 0.00079088 2 0.0026824 -0.00028282 1 0 255 0
0.029865 0.0017345 0.00080589 2 9.2485e-05 -0.00031476 1 0 255 0
0.030975 0.0017342 0.00078849 2 0.0025027 0.00030827 -1 0 255 0
0.027694 0.0015345 0.00084 2 0.0026908 -0.00030152 1 0 255 0
0.031795 0.0015345 -0.00077201 2 0.002691 -0.00025958 1 0 255 0
0.030945 -0.00066546 0.00078851 2 0.014484 -0.36022 -0.93276 0 255 0
0.027145 -0.00056544 -0.00084529 2 9.772e-05 -0.00028255 1 0 255 0
0.029265 0.00033457 -0.0008119 2 8.6984e-05 -0.00030107 1 0 255 0
0.029505 0.0028346 0.00081178 2 0.0025026 0.00033575 -1 0 255 0
0.033925 0.001234 -0.0007392 2 -0.0098576 -0.058855 -0.99822 0 255 0
0.035265 0.0018339 -0.00071811 2 0.0025331 0.00032452 -1 0 255 0
0.034795 -0.00076539 -0.00072649 2 -9.9551e-05 0.00031056 -1 0 255 0
0.035135 0.002134 0.00072319 2 6.8124e-05 -0.00030167 1 0 255 0
0.035125 -0.0013657 0.00072281 2 -0.042099 -0.7804 0.62387 0 255 0
0.035185 0.00073398 0.0007223 2 -9.1988e-05 0.00030747 -1 0 255 0
0.036005 -0.0006655 0.00071521 2 0.0025318 0.00034264 -1 0 255 0
0.032555 0.00063422 -0.0007608 2 0.013584 -0.76917 -0.63889 0 255 0
0.034405 0.00023398 0.00073431 2 0.0027004 -0.00027143 1 0 255 0
0.032925 0.00053428 0.0007577 2 -0.63829 0.47689 -0.60429 0 255 0
0.037045 0.0025338 -0.00071022 2 0.00010022 -0.00028063 1 0 255 0
0.032475 0.0025342 -0.00076112 2 0.0024979 0.00029974 -1 0 255 0
0.035595 0.0032339 0.00071738 2 0.00010732 -0.0003146 1 0 255 0
0.035565 -0.00026611 -0.00071479 2 -0.00010003 0.00030131 -1 0 255 0
0.033485 0.0026342 0.00074918 2 0.0027102 -0.00030351 1 0 255 0
0.036345 0.00083376 -0.0007125 2 0.002477 0.00033556 -1 0 255 0
0.036885 3.4185e-05 -0.0007114 2 0.0025116 0.00032144 -1 0 255 0
0.034124 -0.00016595 -0.00073679 2 0.013087 0.14842 0.98884 0 255 0
0.034475 0.0030342 0.00073369 2 -0.030207 0.80371 0.59426 0 255 0
0.033385 0.0028342 -0.00074682 2 0.0021791 -0.022702 0.99974 0 255 0
0.032955 0.0015343 0.00075729 2 0.0026898 -0.00028378 1 0 255 0
0.036795 0.00073354 0.0007135 2 -0.0036146 0.055091 -0.99847 0 255 0
0.034295 0.0015342 0.00073629 2 -9e-05 0.00030729 -1 0 255 0
0.033475 -0.00036619 0.00074891 2 0.0027258 -0.00027972 1 0 255 0
0.034535 0.0030342 -0.00072882 2 -9.0316e-05 0.00030433 -1 0 255 0
0.032885 -0.00036535 -0.0007561 2 0.0027041 -0.0002882 1 0 255 0
0.035665 -0.0012665 -0.00071489 2 -0.66669 0.68946 -0.28315 0 255 0
0.032265 -0.00016568 0.0007679 2 0.002512 0.00033148 -1 0 255 0
0.035985 0.0026341 -0.00071281 2 0.0027154 -0.00028376 1 0 255 0
0.035845 0.0014339 0.00071619 2 0 0 0 0 255 0
0.033215 0.0018341 -0.00074991 2 0.21209 0.76418 0.60913 0 255 0
0.036655 -0.0010666 -0.00071239 2 6.1846e-05 -0.00032141 1 0 255 0
0.035325 0.00073347 -0.00071771 2 -8.9958e-05 0.00030431 -1 0 255 0
0.041695 0.0012338 0.0007004 2 0.043348 -0.99901 0.010365 0 255 0
0.038685 0.0035336 0.00070918 2 0.0027226 -0.00025253 1 0 255 0
0.039545 0.0004335 -0.00070459 2 8.2702e-05 -0.00028716 1 0 255 0
0.039525 -0.0009668 0.00070561 2 0.0027114 -0.00029761 1 0 255 0
0.038045 0.0028339 -0.00070762 2 0.0025063 0.00035419 -1 0 255 0
0.041624 -0.0011668 0.00069992 2 0.048862 0.99873 -0.012724 0 255 0
0.039245 0.0020338 0.00070719 2 -8.6926e-05 0.00030717 -1 0 255 0
0.039504 -0.00066635 -0.00070509 2 0.0026929 -0.00030338 1 0 255 0
0.037135 0.0027338 0.00071308 2 -8.9053e-05 0.00030575 -1 0 255 0
0.040554 -0.00086627 0.00070291 2 0.053205 0.72709 -0.68449 0 255 0
0.037625 0.00013408 0.0007111 2 -8.6177e-05 0.00030813 -1 0 255 0
0.038595 3.4022e-05 -0.00070709 2 0.00010814 -0.00030792 1 0 255 0
0.039205 0.0006335 0.0007069 2 -9.9302e-05 0.00030497 -1 0 255 0
0.037655 -0.0010656 0.00071061 2 0.0001035 -0.00028636 1 0 255 0
0.040325 0.0023338 0.00070439 2 -0.033144 -0.57663 0.81633 0 255 0
0.040665 0.0026333 -0.00070101 2 0.0024989 0.00032358 -1 0 255 0
0.040765 3.4185e-05 0.0007025 2 -9.1882e-05 0.00030219 -1 0 255 0
0.038745 -0.00026653 0.00070791 2 0.0024825 0.00033689 -1 0 255 0
0.039495 0.0035337 -0.00070372 2 -0.00010224 0.00031159 -1 0 255 0
0.038575 -0.001266 0.00070811 2 0.3059 0.61266 0.72875 0 255 0
0.041375 3.3168e-05 -0.0007002 2 -0.00010061 0.00030341 -1 0 255 0
0.039775 0.0017339 -0.00070361 2 0.0026776 -0.00031111 1 0 255 0
0.040304 -0.00016606 -0.00070289 2 0.00011673 -0.00029519 1 0 255 0
0.041725 0.0023334 -0.00069852 2 -0.090505 0.91051 -0.40346 0 255 0
0.038045 0.0016333 -0.00070801 2 0.00010108 -0.00029237 1 0 255 0
0.041365 0.0035335 0.00070198 2 0.0025326 0.00034282 -1 0 255 0
0.040365 0.0011338 0.000704 2 0.047891 -0.98875 0.14168 0 255 0
0.041235 0.0013334 -0.0007001 2 0.17083 -0.026247 0.98495 0 255 0
0.039195 0.0025337 -0.00070481 2 0.015516 0.00044814 -0.99988 0 255 0
0.037995 0.0017339 0.00071049 2 -8.5775e-05 0.00030222 -1 0 255 0
0.037405 0.00083344 -0.0007098 2 7.9881e-05 -0.00031142 1 0 255 0
0.039655 0.0029337 0.00070639 2 9.6019e-05 -0.00030175 1 0 255 0
0.042115 0.0033337 -0.00069722 2 0.018837 -0.99982 0.004554 0 255 0
0.040695 -0.0010659 -0.00070218 2 -0.00010277 0.00030461 -1 0 255 0
0.042085 -0.00086678 -0.00069858 2 9.4571e-05 -0.00029938 1 0 255 0
0.037765 -0.00036638 -0.0007094 2 0.0025288 0.00030139 -1 0 255 0
0.046755 -0.00096737 0.00068611 2 0.0024961 0.00033351 -1 0 255 0
0.042155 0.00023335 0.0006989 2 0.0026953 -0.00027916 1 0 255 0
0.043155 -0.00036707 -0.00069579 2 0.0026677 -0.00027811 1 0 255 0
0.043285 0.0015333 -0.00069481 2 0.015737 -0.00016827 0.99988 0 255 0
0.045095 0.0020333 -0.00069011 2 7.6756e-05 -0.00032729 1 0 255 0
0.043125 -0.00056651 0.00069601 2 7.8524e-05 -0.00028756 1 0 255 0
0.044955 0.00063351 -0.000691 2 -0.00010107 0.000301 -1 0 255 0
0.043975 0.00063381 -0.00069339 2 -8.7217e-05 0.00030706 -1 0 255 0
0.046385 0.0019331 -0.0006869 2 0.009978 0.99925 -0.037555 0 255 0
0.046955 0.001633 0.0006863 2 0.00010001 -0.00033701 1 0 255 0
0.043465 0.0012328 0.00069559 2 -9.3789e-05 0.00030125 -1 0 255 0
0.046965 0.00033353 0.0006859 2 0.010052 -0.051704 0.99861 0 255 0
0.044435 0.0013332 0.00069299 2 0.0024981 0.00032287 -1 0 255 0
0.043845 0.0032336 0.00069519 2 -9.4355e-05 0.00030218 -1 0 255 0
0.045715 0.0012331 -0.0006888 2 8.0851e-05 -0.0003197 1 0 255 0
0.042815 0.00073392 -0.0006963 2 -9.6393e-05 0.00030905 -1 0 255 0
0.043555 0.0022336 0.00069569 2 0.0025246 0.0003239 -1 0 255 0
0.043165 0.0034337 -0.00069452 2 -0.0055594 -0.99749 -0.070546 0 255 0
0.045965 0.00023307 0.0006886 2 -0.73379 -0.6485 0.20248 0 255 0
0.044505 0.0025337 0.00069319 2 0.00011692 -0.00031344 1 0 255 0
0.046615 0.0027328 0.00068748 2 0.0027101 -0.0003036 1 0 255 0
0.046605 0.00033333 -0.0006869 2 0.0025394 0.00031913 -1 0 255 0
0.045575 0.0023331 0.00069019 2 0.053324 -0.99857 0.00033564 0 255 0
0.045045 -0.00056644 0.00069081 2 0.056536 0.15761 -0.98588 0 255 0
0.044365 -0.00076681 -0.00069289 2 0.0027144 -0.00028201 1 0 255 0
0.044145 0.00013321 0.00069341 2 -9.3695e-05 0.00030341 -1 0 255 0
0.045805 -0.00046684 -0.00068919 2 9.393e-05 -0.00030921 1 0 255 0
0.042465 0.0027329 0.00069868 2 0.0026867 -0.00029958 1 0 255 0
0.043955 0.0026331 -0.00069281 2 0.00010489 -0.00032524 1 0 255 0
0.045385 0.0011329 0.0006904 2 -9.6453e-05 0.00030783 -1 0 255 0
0.045485 0.0030336 -0.00068882 2 9.3259e-05 -0.00031284 1 0 255 0
0.044045 -0.00096678 0.00069341 2 0.037859 0.61031 0.79126 0 255 0
0.042855 0.0025338 -0.00069561 2 0.0025259 0.0003233 -1 0 255 0
0.046825 0.0028333 -0.00068552 2 0.0027272 -0.00028187 1 0 255 0
0.051215 0.0020331 -0.0006748 2 -9.7891e-05 0.00031138 -1 0 255 0
0.049715 -0.00046732 -0.00067939 2 -0.96371 0.25627 0.074688 0 255 0
0.047485 -0.00076695 -0.00068509 2 0.00010054 -0.0003099 1 0 255 0
0.048725 0.0028328 0.00068189 2 0.0157 -0.00013574 0.99988 0 255 0
0.048915 0.0015325 0.00068099 2 0.0027122 -0.00023372 1 0 255 0
0.049815 0.0019327 0.00067869 2 0.0027088 -0.00025903 1 0 255 0
0.047635 0.0025332 0.00068469 2 0.0025285 0.00032488 -1 0 255 0
0.048225 0.00073271 0.00068261 2 0.00010167 -0.00030351 1 0 255 0
0.049005 0.0021328 -0.00068031 2 0.0026911 -0.00030129 1 0 255 0
0.048495 -0.00016717 0.00068161 2 -7.4351e-05 -1 7.4068e-06 0 255 0
0.048784 -0.00076698 -0.00068179 2 0.0027158 -0.00026847 1 0 255 0
0.049755 0.0029324 0.00067908 2 9.7971e-05 -0.00029616 1 0 255 0
0.050465 0.0029324 -0.00067642 2 -0.045698 0.36736 0.92896 0 255 0
0.050925 0.0011333 0.0006755 2 0.00038716 -0.069248 -0.9976 0 255 0
0.050235 0.0018325 -0.00067731 2 8.5169e-05 -0.00030323 1 0 255 0
0.047735 0.003333 -0.00068312 2 7.3861e-05 -0.0003086 1 0 255 0
0.050725 0.00013248 0.0006757 2 9.4379e-05 -0.00033229 1 0 255 0
0.050765 -0.00026699 -0.0006767 2 0.047661 0.75286 -0.65645 0 255 0
0.050885 0.0021328 0.0006758 2 -9.0724e-05 0.00029722 -1 0 255 0
0.051755 0.0011326 -0.0006737 2 0.0026865 -0.00029257 1 0 255 0
0.051554 -0.00066689 0.00067321 2 -8.6981e-05 0.00029515 -1 0 255 0
0.047755 0.00033356 -0.00068399 2 -0.070509 -0.88765 -0.45509 0 255 0
0.051984 0.003133 0.00067319 2 0.0026838 -0.0002872 1 0 255 0
0.049834 0.00073308 -0.0006787 2 8.5192e-05 -0.00031281 1 0 255 0
0.047345 0.0019333 -0.00068451 2 9.7313e-05 -0.00028233 1 0 255 0
0.049685 -0.0010675 0.00067822 2 -8.9811e-05 0.00030972 -1 0 255 0
0.051885 0.0019325 0.00067309 2 0.0026816 -0.00028967 1 0 255 0
0.051775 3.2658e-05 -0.00067399 2 -8.8665e-05 0.00029643 -1 0 255 0
0.049725 -6.6655e-05 0.00067831 2 -0.0030225 -0.07045 0.99751 0 255 0
0.048685 0.00063289 -0.00068159 2 0.0027187 -0.00026069 1 0 255 0
0.050845 0.00063323 -0.0006762 2 0.0027143 -0.00027389 1 0 255 0
0.047854 -0.001067 0.00068311 2 -8.9187e-05 0.00030311 -1 0 255 0
0.051425 0.0030332 -0.00067392 2 7.4351e-05 1 -7.4068e-06 0 255 0
0.048265 0.001533 -0.00068231 2 -4.785e-07 -0.13087 0.9914 0 255 0
0.053695 0.001533 -0.00066871 2 8.0569e-05 -0.00028817 1 0 255 0
0.052205 0.00083293 0.0006719 2 9.8748e-05 -0.0003039 1 0 255 0
0.056525 0.0020321 0.00066059 2 7.7353e-05 -0.00031651 1 0 255 0
0.055665 0.00093258 -0.000664 2 0.0026903 -0.00027377 1 0 255 0
0.056695 0.0035326 -0.00066052 2 -9.6447e-05 0.00030985 -1 0 255 0
0.054525 0.0028327 -0.00066621 2 0.015721 -0.00015359 0.99988 0 255 0
0.053235 0.0032328 -0.00066931 2 -0.067843 0.854 -0.51584 0 255 0
0.055965 0.0025326 -0.00066271 2 -9.1638e-05 0.00030727 -1 0 255 0
0.054955 0.0034324 0.00066518 2 0.0033187 -0.00047996 0.99999 0 255 0
0.052485 0.002133 -0.00067151 2 -9.9486e-05 0.00030728 -1 0 255 0
0.055295 0.00063221 0.0006635 2 0.00012666 -0.00029882 1 0 255 0
0.056445 0.0034328 0.00066118 2 0.00010497 -0.00030907 1 0 255 0
0.052605 -0.00086701 0.00067031 2 -9.8685e-05 0.00030296 -1 0 255 0
0.055685 -0.00036796 0.00066221 2 0.00011496 -0.00030286 1 0 255 0
0.054075 -0.00036704 0.00066651 2 -9.595e-05 0.00029471 -1 0 255 0
0.056684 -6.7925e-05 0.00065961 2 -1.9874e-05 0.0056098 0.99998 0 255 0
0.053025 0.0026328 0.00067019 2 -9.2794e-05 0.00030989 -1 0 255 0
0.053684 -0.0013673 0.00066732 2 -9.5727e-05 0.00029852 -1 0 255 0
0.056385 0.00013187 -0.00066249 2 7.5325e-05 -0.00032724 1 0 255 0
0.053625 -0.00036783 -0.00066949 2 0.0026981 -0.00027884 1 0 255 0
0.056865 0.001833 -0.00066071 2 0.23715 -0.11426 -0.96473 0 255 0
0.055415 0.0016327 0.0006635 2 9.9176e-05 -0.00032633 1 0 255 0
0.052665 -0.00056761 -0.00067199 2 0.050412 -0.99774 0.044274 0 255 0
0.053345 0.0004331 0.00066871 2 0.02832 0.99955 -0.010073 0 255 0
0.053035 0.00073232 -0.00067059 2 0.0025019 0.00033346 -1 0 255 0
0.054735 0.00043205 -0.0006665 2 -9.3341e-05 0.00030757 -1 0 255 0
0.055325 -0.00036727 -0.00066528 2 -0.046253 0.6847 0.72736 0 255 0
0.054265 0.00083217 0.0006664 2 0.0025239 0.00033692 -1 0 255 0
0.054284 0.0018328 0.0006666 2 0.00011472 -0.00028895 1 0 255 0
0.053185 0.0016329 0.00066949 2 -0.0027361 -0.037342 -0.9993 0 255 0
0.054704 0.0016327 -0.0006661 2 0.0025013 0.00034388 -1 0 255 0
0.061375 0.0011318 0.0006473 2 -0.95502 0.29635 0.0095202 0 255 0
0.061495 0.003432 0.00064759 2 0.0471 -0.99888 0.003453 0 255 0
0.059184 -0.0005682 0.00065272 2 -0.094365 -0.65851 -0.74664 0 255 0
0.061135 0.0026324 -0.00064971 2 5.9912e-05 -0.00029603 1 0 255 0
0.059385 -0.00096742 -0.00065528 2 0.033931 -0.034956 -0.99881 0 255 0
0.059215 0.0035316 -0.00065422 2 0.0051623 -0.52856 0.84889 0 255 0
0.057775 0.0016327 0.00065709 2 0.00010685 -0.00029752 1 0 255 0
0.060155 0.0024318 -0.0006522 2 0.00011352 -0.00029714 1 0 255 0
0.058875 0.0012319 -0.0006558 2 0.0027151 -0.00029505 1 0 255 0
0.059875 0.00053209 -0.0006536 2 7.4586e-05 -0.00030834 1 0 255 0
0.058065 0.002932 -0.00065731 2 -9.6819e-05 0.00030631 -1 0 255 0
0.057245 0.00073197 0.00065831 2 -9.1506e-05 0.00031698 -1 0 255 0
0.060395 0.0011321 0.0006499 2 0.0026839 -0.00028896 1 0 255 0
0.057305 -0.0006679 -0.00066039 2 0.014 0.99566 0.092 0 255 0
0.060345 0.00013198 0.00064981 2 -9.0024e-05 0.00031058 -1 0 255 0
0.061064 -0.00056782 0.00064761 2 7.2381e-05 -0.015322 0.99988 0 255 0
0.057675 -0.00086793 0.00065671 2 -9.2659e-05 0.00030618 -1 0 255 0
0.061105 0.0021323 0.00064829 2 0.0027024 -0.00027772 1 0 255 0
0.058585 0.00083254 0.0006547 2 -9.9865e-05 0.0003094 -1 0 255 0
0.058745 0.0022319 -0.00065581 2 0.0027043 -0.00027198 1 0 255 0
0.058755 0.0028322 0.00065479 2 8.5956e-05 -0.00032022 1 0 255 0
0.061095 0.00093158 -0.0006503 2 9.3656e-05 -0.00031048 1 0 255 0
0.057485 0.00033211 -0.00065959 2 -8.7933e-05 0.00030828 -1 0 255 0
0.061965 -0.0012684 0.00064501 2 0.0025266 0.0002971 -1 0 255 0
0.059945 0.0033325 0.00065178 2 0.0027154 -0.00028568 1 0 255 0
0.060784 -0.00056813 -0.00065159 2 0.00010915 -0.00034231 1 0 255 0
0.059525 0.0016319 0.0006524 2 -9.3216e-05 0.0003007 -1 0 255 0
0.062095 0.00083211 -0.00064789 2 0.0027107 -0.00027156 1 0 255 0
0.060345 -0.001368 -0.00065298 2 8.6425e-05 -0.00031786 1 0 255 0
0.058685 3.2712e-05 -0.00065669 2 0.0025059 0.00033384 -1 0 255 0
0.057635 0.0012321 -0.00065891 2 -9.5634e-05 0.00030355 -1 0 255 0
0.058255 -0.0011677 -0.00065818 2 -8.8607e-05 0.00031355 -1 0 255 0
0.057475 0.0026321 0.00065819 2 7.286e-05 -0.00030225 1 0 255 0
0.061835 0.00023229 0.00064581 2 0.0027184 -0.00028007 1 0 255 0
0.063325 0.0010322 -0.0006447 2 0.0027138 -0.00026334 1 0 255 0
0.065115 -0.00056816 -0.00064078 2 0.56824 -0.78551 -0.24512 0 255 0
0.067075 3.1365e-05 0.00063151 2 0.022634 -0.14068 -0.9898 0 255 0
0.065295 0.0025319 -0.00063921 2 0.054597 -0.99851 -0.0007819 0 255 0
0.062635 -0.00026855 0.00064351 2 9.6287e-05 -0.00031248 1 0 255 0
0.062785 0.0032319 0.00064409 2 0.0026946 -0.00029649 1 0 255 0
0.065274 0.0014319 -0.0006397 2 0.0025104 0.00031952 -1 0 255 0
0.063835 0.0032319 -0.00064272 2 0.0027193 -0.00029451 1 0 255 0
0.062414 0.0020322 -0.00064671 2 -0.00010064 0.00030477 -1 0 255 0
0.065825 -0.0012688 0.00063462 2 8.085e-05 -0.00032449 1 0 255 0
0.066465 0.002432 -0.00063641 2 -0.0015614 -0.12409 0.99227 0 255 0
0.066155 0.0034321 -0.00063681 2 0.052143 0.99849 0.017659 0 255 0
0.063515 0.0015318 0.0006416 2 -9.7526e-05 0.00030331 -1 0 255 0
0.062705 0.0033324 -0.00064551 2 -9.2647e-05 0.00030378 -1 0 255 0
0.064685 0.00033142 -0.0006415 2 0.011841 -0.72182 0.69197 0 255 0
0.064615 -0.0013682 0.00063782 2 7.4351e-05 1 -7.4068e-06 0 255 0
0.066045 3.1986e-05 -0.00063819 2 0.0027132 -0.00029527 1 0 255 0
0.063825 0.0026317 0.00064109 2 0.011785 0.99801 0.061926 0 255 0
0.064815 -0.00026835 0.00063761 2 8.7782e-05 -0.00029292 1 0 255 0
0.063905 0.00073156 0.0006403 2 0.018757 0.073917 0.99709 0 255 0
0.065205 0.0013319 0.000637 2 0.00251 0.00033415 -1 0 255 0
0.066395 0.0016317 0.00063389 2 9.9949e-05 -0.00030452 1 0 255 0
0.066425 0.0029315 0.00063409 2 -9.7254e-05 0.00030894 -1 0 255 0
0.062135 0.0020323 0.00064549 2 9.136e-05 -0.00032313 1 0 255 0
0.062315 -0.00016826 -0.00064769 2 0.02918 -0.25486 -0.96654 0 255 0
0.065964 -0.0010682 -0.00063878 2 0.0025292 0.00031183 -1 0 255 0
0.064045 -0.00066837 -0.00064348 2 7.4351e-05 1 -7.4068e-06 0 255 0
0.062685 0.00093242 0.0006437 2 0.00010671 -0.00032144 1 0 255 0
0.064215 0.0023315 -0.00064201 2 0.0027144 -0.00026103 1 0 255 0
0.063515 -0.00086809 0.00064092 2 8.773e-05 -0.00032385 1 0 255 0
0.064314 0.0012321 -0.0006422 2 0.17832 -0.0073848 0.98394 0 255 0
0.064875 0.0031315 0.00063838 2 -9.6301e-05 0.00030566 -1 0 255 0
0.066255 0.001232 -0.0006373 2 -9.2175e-05 0.00030779 -1 0 255 0
0.065564 0.00033165 0.00063571 2 0.015693 -0.00019144 0.99988 0 255 0
0.065645 0.002332 0.00063609 2 0.0025172 0.00034438 -1 0 255 0
0.071795 0.003531 -0.00062261 2 8.4468e-05 -0.00034137 1 0 255 0
0.071105 -0.00026835 0.00062061 2 6.6683e-05 -0.00031663 1 0 255 0
0.068564 0.00013134 0.0006276 2 0.0025006 0.00033915 -1 0 255 0
0.070695 -0.0011688 -0.00062698 2 0.0025353 0.0003338 -1 0 255 0
0.070945 0.0022314 -0.00062521 2 -8.9577e-05 0.00030195 -1 0 255 0
0.070705 0.0016315 0.0006222 2 9.4338e-05 -0.0002852 1 0 255 0
0.069585 0.0022317 0.0006254 2 0.17369 -0.98475 0.010023 0 255 0
0.068355 0.00073145 -0.0006322 2 9.6272e-05 -0.00032603 1 0 255 0
0.068645 0.0025318 -0.0006308 2 0.02315 -0.99227 0.12189 0 255 0
0.069315 0.0012315 0.0006259 2 -8.1907e-05 0.00030816 -1 0 255 0
0.067425 -0.0010688 -0.00063508 2 0.0026893 -0.00027374 1 0 255 0
0.071834 -0.0011684 0.00061842 2 -7.4351e-05 -1 7.4068e-06 0 255 0
0.069295 0.0034316 0.00062658 2 0.041194 -0.99916 0.0023495 0 255 0
0.071995 0.0025308 -0.00062241 2 -0.027951 0.088727 0.99566 0 255 0
0.067395 -0.0013681 0.00063032 2 0.24246 0.0029141 -0.97016 0 255 0
0.069155 0.0012317 -0.00063 2 0.0026933 -0.00030881 1 0 255 0
0.069335 -0.00016815 -0.00062998 2 0.0024892 0.00034515 -1 0 255 0
0.068115 0.0010314 0.000629 2 6.5553e-05 -0.00029821 1 0 255 0
0.072055 3.1378e-05 -0.00062319 2 -0.013335 -0.63888 0.76921 0 255 0
0.068595 -0.00096879 -0.00063218 2 0.0025232 0.00032317 -1 0 255 0
0.070115 -0.00076902 0.00062311 2 -9.3857e-05 0.00030239 -1 0 255 0
0.070165 0.0030317 -0.00062691 2 0.0025352 0.0003444 -1 0 255 0
0.067995 0.0033317 0.00062998 2 -8.6101e-05 0.00030289 -1 0 255 0
0.071995 0.001231 -0.0006229 2 0.015544 0.00048274 -0.99988 0 255 0
0.067705 0.002032 -0.0006334 2 0.0026813 -0.00029141 1 0 255 0
0.071495 0.00063098 0.00061981 2 7.4351e-05 1 -7.4068e-06 0 255 0
0.070645 0.00053176 -0.00062649 2 0.00011003 -0.00031585 1 0 255 0
0.071505 0.0035315 0.00062059 2 -9.0358e-05 0.0003033 -1 0 255 0
0.067845 0.0023317 0.00063019 2 0.0025029 0.0003114 -1 0 255 0
0.071485 0.0025318 0.00062039 2 0.0025195 0.00034437 -1 0 255 0
0.068895 -0.00076901 0.00062642 2 -0.0034134 0.9992 -0.039867 0 255 0
0.070536 0.0026312 0.00062299 2 -9.3189e-05 0.00029888 -1 0 255 0
0.067795 0.0031314 -0.00063281 2 0.0025219 0.00032463 -1 0 255 0
0.067285 0.0010317 -0.00063479 2 0.0024971 0.00036649 -1 0 255 0
0.069675 0.0003312 0.00062461 2 0.00011076 -0.00029393 1 0 255 0
0.069705 -0.0010692 -0.00062938 2 0.0001307 -0.00031926 1 0 255 0
0.067935 -0.00016795 -0.00063349 2 0.0015369 -0.0049463 0.99999 0 255 0
0.074444 -0.0010687 -0.00061748 2 -0.0084291 -0.50005 0.86595 0 255 0
0.072655 0.0031313 0.00061739 2 0.018569 0.8611 0.50809 0 255 0
0.072765 -0.00026841 0.00061612 2 0.0025184 0.00030465 -1 0 255 0
0.075615 0.00083085 -0.00061389 2 0.0025099 0.00035677 -1 0 255 0
0.074325 0.003531 0.00061298 2 0.0027015 -0.00025389 1 0 255 0
0.076464 0.00013094 -0.00061199 2 -9.398e-05 0.00030666 -1 0 255 0
0.074265 0.0011309 0.0006125 2 0.0024882 0.00035075 -1 0 255 0
0.074955 0.0018311 0.0006108 2 -9.6805e-05 0.00030222 -1 0 255 0
0.076625 0.0017313 0.0006063 2 -9.0146e-05 0.00030046 -1 0 255 0
0.075055 0.0022309 -0.00061491 2 0.033148 0.99753 0.062041 0 255 0
0.074065 -0.00076884 0.00061252 2 0.035079 -0.98047 0.19352 0 255 0
0.076925 0.0032309 -0.00060981 2 -9.6942e-05 0.00030361 -1 0 255 0
0.072975 -0.0012684 0.00061532 2 8.0789e-05 -0.00031814 1 0 255 0
0.073115 -0.0005693 -0.00062068 2 -0.018409 0.9981 -0.058797 0 255 0
0.075535 0.0032309 0.00060969 2 -8.9465e-05 0.00029827 -1 0 255 0
0.073235 0.0034305 -0.00061902 2 0.002683 -0.00030073 1 0 255 0
0.073375 0.0023306 0.0006152 2 -9.8284e-05 0.0003144 -1 0 255 0
0.072955 0.0009308 0.000616 2 0.0026995 -0.00027513 1 0 255 0
0.072345 0.0018315 0.0006179 2 0.0026594 -0.00029035 1 0 255 0
0.076095 0.0023307 -0.00061221 2 0.0001128 -0.00031536 1 0 255 0
0.073775 0.0022314 -0.0006181 2 0.0027424 -0.00025625 1 0 255 0
0.075335 0.0003309 0.00060941 2 8.1719e-05 -0.00029255 1 0 255 0
0.075984 -0.00076911 0.00060732 2 0.0079143 0.035171 -0.99935 0 255 0
0.074105 0.0011312 -0.0006176 2 -0.00010023 0.00031026 -1 0 255 0
0.076435 0.0027311 0.00060709 2 -9.8682e-05 0.00031075 -1 0 255 0
0.072975 0.0014316 -0.0006204 2 0.26715 -0.060118 0.96178 0 255 0
0.074535 0.0032309 -0.00061581 2 -9.228e-05 0.00030376 -1 0 255 0
0.076815 -0.0013695 0.00060492 2 0.0025318 0.00031373 -1 0 255 0
0.076335 0.00033045 0.00060671 2 -9.3836e-05 0.00030053 -1 0 255 0
0.074615 0.00013098 -0.00061669 2 8.9211e-05 -0.00031836 1 0 255 0
0.075455 -0.00046919 -0.00061479 2 0.00013006 -0.00029577 1 0 255 0
0.075755 0.0013312 0.00060851 2 0.01576 -0.00019601 0.99988 0 255 0
0.076475 0.0014312 -0.0006116 2 -8.704e-05 0.00031458 -1 0 255 0
0.079775 0.0034304 -0.00060261 2 0.0024765 0.00031521 -1 0 255 0
0.078105 0.0021305 -0.0006073 2 0.0026852 -0.00028572 1 0 255 0
0.079005 -0.00036888 0.00059931 2 7.3562e-05 -0.00028922 1 0 255 0
0.080175 0.0016303 0.00059671 2 -9.6011e-05 0.00031257 -1 0 255 0
0.081524 -0.00016932 0.00059252 2 0.0026888 -0.00029088 1 0 255 0
0.079995 -0.00086935 0.00059652 2 0.00010215 -0.00030866 1 0 255 0
0.081225 0.0014308 0.0005938 2 0.0025382 0.00029636 -1 0 255 0
0.080345 0.0023304 -0.00060151 2 0.0027008 -0.0002805 1 0 255 0
0.081595 0.00043034 -0.00059899 2 0.0025402 0.00030782 -1 0 255 0
0.077645 0.0026309 0.0006038 2 -9.8066e-05 0.00030877 -1 0 255 0
0.077785 -0.00086961 0.00060242 2 0.00011897 -0.00030523 1 0 255 0
0.077665 0.00073033 0.0006032 2 8.228e-05 -0.00031537 1 0 255 0
0.081225 0.0025306 0.00059409 2 0.0026735 -0.00030936 1 0 255 0
0.077215 -0.0005694 -0.00061038 2 -9.8148e-05 0.00030687 -1 0 255 0
0.080514 0.00063039 -0.00060169 2 -9.0512e-05 0.00029465 -1 0 255 0
0.079205 0.0019304 0.0005994 2 0.0025095 0.00034809 -1 0 255 0
0.079545 0.0034302 0.00059889 2 0.025265 0.1875 0.98194 0 255 0
0.081515 0.0033307 -0.00059831 2 0.0025331 0.00033609 -1 0 255 0
0.079015 0.0026308 -0.00060481 2 0.0025077 0.00035492 -1 0 255 0
0.081885 0.0018302 -0.0005978 2 -0.0041469 0.99579 0.091562 0 255 0
0.081975 0.00073048 0.0005916 2 -9.2052e-05 0.00030806 -1 0 255 0
0.080455 -0.00086941 -0.00060228 2 -0.021007 -0.094038 0.99535 0 255 0
0.078175 0.0035304 0.00060258 2 0.0025347 0.00032667 -1 0 255 0
0.078055 -0.0011696 -0.00060848 2 0.0026976 -0.00029168 1 0 255 0
0.078785 -0.0013695 0.00059952 2 0.015736 -0.0001493 0.99988 0 255 0
0.080535 0.0033305 0.00059619 2 0.0026912 -0.00027925 1 0 255 0
0.078495 0.00053089 -0.00060679 2 -8.9943e-05 0.00031118 -1 0 255 0
0.079154 -0.0011693 -0.00060568 2 7.4351e-05 1 -7.4068e-06 0 255 0
0.079385 0.0012304 -0.0006043 2 9.4622e-05 -0.00027459 1 0 255 0
0.080065 0.00033019 0.00059661 2 0.0027026 -0.0002554 1 0 255 0
0.078854 0.0010307 0.0006001 2 -8.5049e-05 0.00031341 -1 0 255 0
0.081555 -0.00056922 -0.00059948 2 0.0042542 -2.267e-05 0.99999 0 255 0
0.079374 0.00013092 -0.00060469 2 -0.00010189 0.00030899 -1 0 255 0
0.077225 0.00073091 -0.00060989 2 -9.6849e-05 0.00030033 -1 0 255 0
0.077935 0.0031308 -0.00060731 2 0.021918 0.99877 -0.044201 0 255 0
0.084004 -0.0013693 -0.00059357 2 0.035316 0.31977 -0.94683 0 255 0
0.084305 -0.00036962 -0.00059249 2 0.0026897 -0.00028536 1 0 255 0
0.086345 0.0017301 -0.0005867 2 0.015756 -0.00014366 0.99988 0 255 0
0.082925 0.0012307 -0.0005954 2 -9.1041e-05 0.00030555 -1 0 255 0
0.082625 -0.0012698 0.00058922 2 -8.279e-05 0.00030979 -1 0 255 0
0.087035 0.0028303 0.0005785 2 0.00010159 -0.00029154 1 0 255 0
0.085564 0.00083032 0.00058191 2 -8.9213e-05 0.0003135 -1 0 255 0
0.084445 -0.00096999 0.00058443 2 -8.3615e-05 0.00031202 -1 0 255 0
0.083795 3.0055e-05 0.00058651 2 9.6838e-05 -0.00030926 1 0 255 0
0.085005 0.0020299 0.00058379 2 -9.839e-05 0.00030169 -1 0 255 0
0.083095 0.0024308 0.000589 2 -9.4475e-05 0.00030177 -1 0 255 0
0.083055 -0.00107 -0.00059588 2 0.2397 0.010995 0.97078 0 255 0
0.083715 0.0013308 0.00058711 2 -9.1251e-05 0.00030064 -1 0 255 0
0.085065 -6.9995e-05 0.00058301 2 9.1857e-05 -0.00030206 1 0 255 0
0.085625 -0.0011701 -0.00058948 2 0.015586 0.00043417 -0.99988 0 255 0
0.086734 0.00043008 -0.00058619 2 0.00011004 -0.00030398 1 0 255 0
0.084905 0.0014298 -0.00059039 2 -0.030473 0.45843 0.88821 0 255 0
0.084425 0.0029307 0.00058559 2 -9.8454e-05 0.00030816 -1 0 255 0
0.083665 0.0028306 -0.00059311 2 0.0026724 -0.00028548 1 0 255 0
0.086175 0.0016301 0.0005805 2 0.0025192 0.00034883 -1 0 255 0
0.085465 0.0022307 -0.0005887 2 0.064794 -0.11389 -0.99138 0 255 0
0.084595 0.0032303 -0.00059061 2 9.5822e-05 -0.00031352 1 0 255 0
0.086485 -0.00077021 -0.00058718 2 0.0025067 0.00032756 -1 0 255 0
0.085695 0.00082974 -0.00058859 2 9.2325e-05 -0.00030353 1 0 255 0
0.085765 0.0027304 0.00058189 2 0.076619 -0.97935 -0.1871 0 255 0
0.086925 0.0034298 -0.00058471 2 -0.10163 0.87797 -0.46782 0 255 0
0.082864 0.00013036 -0.00059598 2 -9.0039e-05 0.00030705 -1 0 255 0
0.085465 -0.0010696 0.00058162 2 0.0025079 0.00031215 -1 0 255 0
0.084285 0.00063074 -0.00059219 2 0.00040643 0.99847 -0.055269 0 255 0
0.086725 0.00063026 0.0005787 2 0.0026869 -0.00029281 1 0 255 0
0.082715 0.0026305 -0.0005955 2 0.0026796 -0.00028764 1 0 255 0
0.082735 -6.9595e-05 0.00058932 2 9.2145e-05 -0.00029122 1 0 255 0
0.082125 0.00193 0.0005915 2 0.0025165 0.00030438 -1 0 255 0
0.084065 0.00193 -0.0005924 2 -0.069041 -0.96222 0.26336 0 255 0
0.086964 -0.00036965 0.00057782 2 7.6397e-05 -0.00029822 1 0 255 0
0.084595 0.0009302 0.00058451 2 0.0027178 -0.00029808 1 0 255 0
0.085324 -6.9743e-05 -0.00058989 2 8.1397e-05 -0.00033144 1 0 255 0
0.090445 -0.0001705 0.00056842 2 0.002492 0.00034692 -1 0 255 0
0.090385 -0.0012699 0.00056832 2 0.0027088 -0.00027562 1 0 255 0
0.089695 0.00072976 0.00057071 2 0.030542 -0.083836 -0.99601 0 255 0
0.088105 -0.0011695 -0.00058328 2 0.0026846 -0.00028926 1 0 255 0
0.088545 0.0019294 -0.0005811 2 0.0027171 -0.00027563 1 0 255 0
0.089615 0.0017297 -0.00057849 2 0.0025222 0.00034374 -1 0 255 0
0.091344 -0.00087049 0.00056582 2 0.00011773 -0.00030406 1 0 255 0
0.087805 0.0031298 -0.00058261 2 0.0026827 -0.00027134 1 0 255 0
0.091085 0.0017296 -0.0005748 2 0.0024953 0.00032875 -1 0 255 0
0.089205 0.00263 0.00057259 2 0 0 0 0 255 0
0.089755 0.0034293 0.00057139 2 0.0025138 0.00030429 -1 0 255 0
0.087505 0.0011302 -0.000584 2 -9.2616e-05 0.00030086 -1 0 255 0
0.091125 0.0022293 0.0005673 2 -8.483e-05 0.00031139 -1 0 255 0
0.087925 0.0016297 0.0005758 2 0.0026881 -0.0002884 1 0 255 0
0.088905 0.0015294 0.00057311 2 0.3009 0.71792 -0.62774 0 255 0
0.090614 -0.0010701 -0.00057688 2 0.17195 0.61977 -0.76572 0 255 0
0.089045 -0.00097049 -0.00058078 2 0.0024836 0.00034049 -1 0 255 0
0.092115 -0.0012701 -0.00057318 2 0.021396 0.2185 0.97561 0 255 0
0.088065 0.00263 0.00057569 2 -0.065715 -0.36464 0.92882 0 255 0
0.091735 3.0197e-05 -0.00057368 2 0.0025122 0.00034844 -1 0 255 0
0.091805 0.0010297 0.0005651 2 0.00011015 -0.00028416 1 0 255 0
0.087405 -0.00037021 -0.00058468 2 0.0025171 0.00036137 -1 0 255 0
0.089095 0.00033011 -0.00058029 2 0.0024666 0.00033247 -1 0 255 0
0.088085 -0.00086989 0.00057462 2 -9.7389e-05 0.0003125 -1 0 255 0
0.087675 0.0035302 0.00057699 2 -9.1575e-05 0.00029844 -1 0 255 0
0.087265 0.0023297 -0.0005842 2 9.494e-05 -0.00030593 1 0 255 0
0.090945 0.0034294 -0.00057461 2 0.0025131 0.00032955 -1 0 255 0
0.089515 -0.00057013 0.00057092 2 0.0025275 0.00032982 -1 0 255 0
0.092035 -7.0364e-05 0.00056422 2 8.363e-05 -0.00029564 1 0 255 0
0.090585 -6.9992e-05 -0.00057668 2 0.002512 0.00033518 -1 0 255 0
0.087865 0.00012987 0.00057551 2 -0.0081884 -0.012901 0.99988 0 255 0
0.090985 0.0033299 0.00056799 2 -9.5393e-05 0.00030338 -1 0 255 0
0.088616 0.0034297 0.00057439 2 -9.1521e-05 0.00030742 -1 0 255 0
0.090335 0.0008294 -0.00057699 2 -0.00010285 0.00030698 -1 0 255 0
0.090084 0.00223 0.0005701 2 -0.24635 0.13791 -0.95932 0 255 0
0.090295 0.0025302 -0.00057651 2 0.044688 -0.99895 0.010223 0 255 0
0.090565 0.0013294 0.0005686 2 0.0025027 0.00034705 -1 0 255 0
0.088855 0.00022977 0.00057281 2 0.002504 0.00035432 -1 0 255 0
0.094695 -0.00047031 -0.00056648 2 0.0025388 0.0003306 -1 0 255 0
0.094085 0.0023292 0.00055929 2 0.046205 -0.99873 -0.019712 0 255 0
0.096205 0.0010291 0.0005533 2 0 0 0 0 255 0
0.092845 0.0028301 0.00056279 2 -9.6751e-05 0.00030946 -1 0 255 0
0.095315 0.001929 -0.0005641 2 0.24198 0.0026179 -0.97028 0 255 0
0.093214 2.9975e-05 -0.00056999 2 0.0025097 0.00034424 -1 0 255 0
0.094605 0.0012293 -0.00056609 2 0.01592 -0.99864 -0.049569 0 255 0
0.093005 -0.00047072 0.00056152 2 -9.4754e-05 0.00030272 -1 0 255 0
0.096635 -0.00027028 0.00055172 2 0.0027049 -0.00025976 1 0 255 0
0.092995 0.0018296 0.0005622 2 -9.8161e-05 0.00031479 -1 0 255 0
0.093835 0.00012961 0.00055941 2 -0.0094422 0.84999 0.52671 0 255 0
0.095124 0.0017296 0.0005564 2 8.5003e-05 -0.00032554 1 0 255 0
0.093635 0.0025299 -0.00056811 2 0.0026724 -0.00030128 1 0 255 0
0.092254 -0.00137 0.00056323 2 -8.9936e-05 0.00030431 -1 0 255 0
0.097065 0.0012291 -0.00056 2 0.0027074 -0.00028232 1 0 255 0
0.095375 0.00022895 -0.00056449 2 0.056757 -0.079319 0.99523 0 255 0
0.095245 0.0028295 -0.00056401 2 0.0025136 0.00032949 -1 0 255 0
0.093425 0.00343 -0.00056831 2 0.0025222 0.00031929 -1 0 255 0
0.096265 0.0007298 -0.00056208 2 0.002677 -0.00029388 1 0 255 0
0.095595 -0.00057094 0.00055452 2 7.6936e-05 -0.00030096 1 0 255 0
0.093725 0.0012294 0.00056001 2 0.00010069 -0.0002931 1 0 255 0
0.092606 0.0026293 -0.0005707 2 -9.3138e-05 0.00031359 -1 0 255 0
0.095435 0.00042989 0.00055522 2 7.8428e-05 -0.0003086 1 0 255 0
0.096335 -0.00047023 -0.00056238 2 -9.0427e-05 0.00030204 -1 0 255 0
0.095205 0.0032296 0.00055659 2 9.6954e-05 -0.00032426 1 0 255 0
0.096245 0.0028299 0.0005537 2 7.4295e-05 -0.00032727 1 0 255 0
0.093154 0.00092974 -0.00056979 2 0.0025144 0.00036029 -1 0 255 0
0.095505 -0.0011705 -0.00056468 2 0.0027047 -0.00026899 1 0 255 0
0.092875 0.00073011 0.00056221 2 8.2116e-05 -0.00031649 1 0 255 0
0.092345 0.001529 -0.0005717 2 8.8896e-05 -0.00029294 1 0 255 0
0.093154 -0.0010703 -0.00057057 2 0.0026844 -0.00029253 1 0 255 0
0.096455 0.0028292 -0.0005609 2 7.4351e-05 1 -7.4068e-06 0 255 0
0.094535 -0.0006706 0.00055732 2 8.1026e-05 -0.00031065 1 0 255 0
0.096615 0.0019289 0.0005524 2 0.031583 -0.9995 0.0024874 0 255 0
0.098195 0.00032963 -0.00055739 2 0.00010889 -0.00030988 1 0 255 0
0.097885 0.00022958 0.00054851 2 0.096625 -0.99136 -0.088683 0 255 0
0.10086 0.0015291 -0.0005503 2 -9.5031e-05 0.00030388 -1 0 255 0
0.10055 0.0013289 0.0005416 2 0.0024972 0.00034009 -1 0 255 0
0.10142 0.0031289 0.0005398 2 0.0025069 0.0003679 -1 0 255 0
0.099565 0.002629 -0.0005532 2 0.084664 0.99285 -0.084114 0 255 0
0.099285 0.0022295 0.0005453 2 -9.7809e-05 0.00030915 -1 0 255 0
0.097495 0.002929 -0.00055831 2 0.00086885 0.00021717 1 0 255 0
0.097385 0.001429 0.00055021 2 0.00011755 -0.00029419 1 0 255 0
0.098415 0.0022292 -0.0005562 2 0.0026757 -0.00027226 1 0 255 0
0.10171 0.0008286 -0.00054839 2 0.00010971 -0.00030627 1 0 255 0
0.10081 -0.00047109 -0.00055108 2 0.055015 0.96855 -0.24268 0 255 0
0.098815 0.0032293 0.00054689 2 -0.094834 -0.87152 -0.48108 0 255 0
0.10038 0.0031289 -0.000551 2 7.912e-05 -0.00030573 1 0 255 0
0.10185 -0.00067097 0.00053752 2 0.0001077 -0.00031235 1 0 255 0
0.10199 -0.00047151 -0.00054808 2 0.0027056 -0.00025147 1 0 255 0
0.097995 0.0022288 0.0005488 2 0.0027168 -0.0002736 1 0 255 0
0.10159 0.0019294 0.000539 2 0 0 0 0 255 0
0.099635 -0.00047116 -0.00055408 2 0.0026815 -0.00026443 1 0 255 0
0.10052 0.0028294 0.0005421 2 7.4351e-05 1 -7.4068e-06 0 255 0
0.098655 0.0010294 0.00054671 2 -9.2719e-05 0.00030363 -1 0 255 0
0.10002 -0.00037083 0.00054262 2 -0.050608 -0.79229 0.60804 0 255 0
0.10146 0.00082867 0.00053901 2 9.4198e-05 -0.00032085 1 0 255 0
0.099355 0.00042873 0.00054461 2 0.00010412 -0.00030299 1 0 255 0
0.097875 0.0035288 0.00054949 2 0.0024954 0.00032562 -1 0 255 0
0.099795 0.0016288 -0.000553 2 -9.8741e-05 0.00030896 -1 0 255 0
0.097125 -0.0013702 0.00055013 2 0.0027144 -0.00025928 1 0 255 0
0.1013 0.0028288 -0.0005487 2 0.0026839 -0.00029408 1 0 255 0
0.10014 0.00052933 -0.00055248 2 0.0026919 -0.00027387 1 0 255 0
0.098964 -0.000971 0.00054522 2 0.0001119 -0.00030511 1 0 255 0
0.098655 0.0031298 -0.00055531 2 0.0025066 0.00032069 -1 0 255 0
0.097505 -0.00047016 -0.00055938 2 0.044471 -0.90876 0.41494 0 255 0
0.097964 -0.00077063 0.00054803 2 -9.2728e-05 0.00029969 -1 0 255 0
0.10091 -7.0624e-05 0.00054022 2 0.0025407 0.0003129 -1 0 255 0
0.097215 0.0027294 0.000551 2 7.1456e-05 -0.00030895 1 0 255 0
0.10057 -0.0013707 0.00054082 2 0.018617 -0.99975 -0.012124 0 255 0
0.099145 0.00052885 -0.00055499 2 0.0025106 0.00034998 -1 0 255 0
0.098565 -0.00057043 -0.00055678 2 0.0025179 0.00034222 -1 0 255 0
0.1026 0.0017289 -0.00054589 2 0.0026865 -0.00027721 1 0 255 0
0.10638 0.0013274 0.00052591 2 0.00253 0.00030926 -1 0 255 0
0.10457 0.0021281 -0.0005408 2 -0.033111 -0.56624 0.82357 0 255 0
0.10675 -0.00067284 0.00052432 2 0.013113 0.99941 0.031815 0 255 0
0.10576 0.0010292 -0.00053819 2 0.00010168 -0.00031543 1 0 255 0
0.10712 0.0025297 0.00052431 2 0.0027066 -0.00026283 1 0 255 0
0.10439 0.00062871 -0.00054179 2 0.0027312 -0.00026027 1 0 255 0
0.10671 0.003529 0.00052559 2 0.0027201 -0.00027802 1 0 255 0
0.10552 0.0032289 0.0005288 2 -0.043836 0.11409 -0.9925 0 255 0
0.10321 0.00092912 -0.00054459 2 0.0001002 -0.000299 1 0 255 0
0.10314 -0.00047129 0.00053412 2 0.0027125 -0.00027323 1 0 255 0
0.10572 0.0003268 0.00052742 2 0.0024934 0.00036856 -1 0 255 0
0.10662 0.0019278 -0.0005357 2 0.0024997 0.0003043 -1 0 255 0
0.10584 0.0034298 -0.0005372 2 7.8253e-05 -0.00030007 1 0 255 0
0.10301 0.0024286 0.00053529 2 0.0027302 -0.00027703 1 0 255 0
0.10459 -0.00087108 0.00053012 2 9.3486e-05 -0.00029122 1 0 255 0
0.10566 0.0024291 -0.000538 2 0.033162 -0.0056223 -0.99943 0 255 0
0.1039 0.0029285 0.00053309 2 0.0001045 -0.00027686 1 0 255 0
0.10545 0.0023293 0.0005287 2 0.0027169 -0.00030245 1 0 255 0
0.10478 2.826e-05 0.00052982 2 -9.3094e-05 0.00030233 -1 0 255 0
0.10317 0.0028287 -0.00054411 2 0.0025075 0.00031347 -1 0 255 0
0.1031 0.0015291 0.00053481 2 0.00011191 -0.00027464 1 0 255 0
0.10348 -0.00047117 -0.00054438 2 -0.92204 -0.23876 -0.3047 0 255 0
0.10487 -0.00027168 -0.00054078 2 -0.046292 0.48981 0.8706 0 255 0
0.10251 -0.0013715 -0.00054717 2 9.8191e-05 -0.00031754 1 0 255 0
0.10472 -0.0011717 -0.00054158 2 -8.9643e-05 0.00030917 -1 0 255 0
0.10262 0.00042868 0.00053581 2 -9.1053e-05 0.00031063 -1 0 255 0
0.10599 -0.00037182 -0.00053808 2 8.5256e-05 -0.00031954 1 0 255 0
0.10389 0.00062851 0.00053241 2 9.6618e-05 -0.00031065 1 0 255 0
0.1068 0.00333 -0.00053481 2 0.0098988 -0.015389 -0.99983 0 255 0
0.10425 0.0017283 0.0005317 2 0.0043279 -0.011662 -0.99992 0 255 0
0.10562 -0.00067221 0.00052742 2 0.015719 -0.00014672 0.99988 0 255 0
0.11113 0.0029295 -0.0005241 2 -0.012157 -0.26916 0.96302 0 255 0
0.11138 -0.00087295 0.00051183 2 -9.5827e-05 0.00030113 -1 0 255 0
0.11073 0.0029286 0.0005146 2 0.030609 0.99339 0.11059 0 255 0
0.10861 0.0020286 0.0005201 2 -0.0044456 0.18999 0.98178 0 255 0
0.10935 0.0025304 -0.0005287 2 7.4351e-05 1 -7.4068e-06 0 255 0
0.11092 0.00072723 0.00051351 2 0.015884 -0.60099 0.79909 0 255 0
0.11105 -0.00027097 -0.00052538 2 9.6694e-05 -0.00030289 1 0 255 0
0.11186 0.0022265 -0.0005225 2 0.044319 0.53403 0.8443 0 255 0
0.10821 2.9629e-05 -0.00053238 2 0.0026987 -0.00026757 1 0 255 0
0.10958 0.0016293 0.0005174 2 0.015536 0.00048371 -0.99988 0 255 0
0.10835 0.002929 -0.0005311 2 9.0895e-05 -0.00031655 1 0 255 0
0.11182 0.0027294 0.0005116 2 -9.2999e-05 0.00030434 -1 0 255 0
0.10989 0.00022653 0.00051612 2 7.7612e-05 -0.00029637 1 0 255 0
0.10909 -0.0013713 0.00051782 2 -0.86808 -0.49534 -0.032924 0 255 0
0.10727 -0.00087002 -0.00053507 2 0.0026811 -0.00030632 1 0 255 0
0.11071 0.0020301 -0.00052549 2 -0.1137 -0.73744 -0.66577 0 255 0
0.11155 -0.0010708 -0.00052437 2 -0.0023712 0.029911 0.99955 0 255 0
0.10804 -0.00077304 0.00052082 2 0.012927 -0.00051349 -0.99992 0 255 0
0.1092 0.00022699 -0.00052978 2 -0.19308 0.072735 -0.97848 0 255 0
0.11092 0.00092813 -0.00052519 2 -9.7648e-05 0.0003035 -1 0 255 0
0.11053 -0.0012708 -0.00052697 2 0.0027009 -0.00026077 1 0 255 0
0.10945 0.002927 0.0005181 2 0.015677 -0.00013764 0.99988 0 255 0
0.11 -0.00086982 0.00051553 2 0.091821 0.017529 -0.99562 0 255 0
0.1113 0.0017286 0.00051281 2 0.002694 -0.00027556 1 0 255 0
0.10712 0.00032795 -0.00053499 2 0.0024989 0.00034759 -1 0 255 0
0.10871 2.9388e-05 0.00051932 2 0.0027097 -0.00027156 1 0 255 0
0.10906 -0.00077333 -0.00053048 2 0.0024903 0.00034289 -1 0 255 0
0.10951 0.0011283 -0.00052869 2 0 0 0 0 255 0
0.11015 0.00012667 -0.00052748 2 -9.9857e-05 0.00030208 -1 0 255 0
0.10998 0.0033287 -0.0005268 2 0.0024835 0.00033407 -1 0 255 0
0.10788 0.0013295 0.00052191 2 0.0025276 0.00032413 -1 0 255 0
0.11198 0.00042846 -0.00052279 2 0 0 0 0 255 0
0.10848 0.0014275 -0.00053119 2 0.0027111 -0.00027435 1 0 255 0
0.10893 0.00092845 0.00051891 2 0.0025382 0.00034516 -1 0 255 0
0.10758 0.0019294 -0.00053329 2 -0.0001018 0.0002982 -1 0 255 0
0.10717 0.00023032 0.00052352 2 -9.3958e-05 0.00030158 -1 0 255 0
0.1161 0.0028288 0.0005001 2 0.0026998 -0.00026918 1 0 255 0
0.11295 0.0020274 -0.00051979 2 0.0025209 0.00033682 -1 0 255 0
0.11618 -0.00087166 -0.00051267 2 -9.4039e-05 0.00030821 -1 0 255 0
0.1156 -0.00087086 0.00050043 2 -9.432e-05 0.00030657 -1 0 255 0
0.11596 0.0012263 0.00050001 2 0.00011172 -0.00030611 1 0 255 0
0.11305 -0.00077141 -0.00052047 2 -9.9245e-05 0.00031276 -1 0 255 0
0.11269 0.0021273 0.0005091 2 0.0025489 0.00033953 -1 0 255 0
0.115 -0.00017119 -0.00051538 2 0.019104 0.40104 -0.91586 0 255 0
0.11418 0.00032644 0.00050462 2 0.0027082 -0.0002632 1 0 255 0
0.11561 0.00012741 0.00050062 2 -0.00010094 0.00031197 -1 0 255 0
0.11307 0.00032848 -0.00052008 2 -9.0475e-05 0.00030864 -1 0 255 0
0.11679 -0.0013736 0.00049703 2 0.0025355 0.00034769 -1 0 255 0
0.11215 -7.2042e-05 0.00050992 2 0.0025224 0.00032034 -1 0 255 0
0.11391 0.0025298 -0.0005172 2 -9.1498e-05 0.00030522 -1 0 255 0
0.11435 0.0011291 -0.00051658 2 -8.0503e-05 0.00030778 -1 0 255 0
0.11481 0.0030275 -0.0005148 2 7.5237e-05 -0.00028487 1 0 255 0
0.11332 -0.00027233 0.00050672 2 -0.078998 -0.97466 0.20927 0 255 0
0.11657 0.00042829 0.00049821 2 9.9037e-05 -0.00029803 1 0 255 0
0.11528 0.0022269 -0.0005139 2 0.0025049 0.00032521 -1 0 255 0
0.11216 0.0012283 0.00051031 2 9.1425e-05 -0.00032092 1 0 255 0
0.11405 -0.0012727 0.00050452 2 0.0025193 0.00032444 -1 0 255 0
0.1153 0.0010297 -0.00051429 2 0.0027024 -0.0002807 1 0 255 0
0.11498 0.0021286 0.000503 2 8.451e-05 -0.00031313 1 0 255 0
0.1167 0.0029287 -0.00051011 2 -9.2653e-05 0.00030388 -1 0 255 0
0.11424 0.0034282 0.0005053 2 0.0025027 0.00032845 -1 0 255 0
0.11484 0.0011293 0.00050301 2 8.8437e-05 -0.00030726 1 0 255 0
0.11265 0.0029299 -0.0005203 2 0.00011136 -0.0003232 1 0 255 0
0.11467 -0.00097068 -0.00051647 2 0.0026875 -0.00029359 1 0 255 0
0.11322 0.00092694 0.00050731 2 0.0025538 0.00029432 -1 0 255 0
0.11617 0.00032835 -0.00051229 2 -0.022077 -0.067152 0.9975 0 255 0
0.11332 0.0028269 0.0005076 2 0.0027142 -0.00027503 1 0 255 0
0.11643 0.0019272 -0.00051109 2 0.00012649 -0.00030117 1 0 255 0
0.11403 0.0019298 0.0005055 2 9.5574e-05 -0.00031939 1 0 255 0
0.11923 -0.00047059 -0.00050488 2 -9.4083e-05 0.0003169 -1 0 255 0
0.11816 0.0018284 -0.00050679 2 -0.013781 0.032306 -0.99938 0 255 0
0.1172 0.0027279 0.0004971 2 0.0027094 -0.00027149 1 0 255 0
0.11722 0.0014286 -0.00050929 2 0.0025001 0.00033047 -1 0 255 0
0.11922 0.00052656 -0.00050448 2 7.8323e-05 -0.00031203 1 0 255 0
0.12049 0.0034266 0.00048839 2 -9.0807e-05 0.00030058 -1 0 255 0
0.12185 0.0012284 -0.00049769 2 9.5051e-05 -0.0003141 1 0 255 0
0.11934 0.0032274 0.0004915 2 -0.0001044 0.00030836 -1 0 255 0
0.11874 -0.0008725 0.00049192 2 7.6991e-05 -0.00032475 1 0 255 0
0.11951 0.001628 0.00049061 2 -8.934e-05 0.0003202 -1 0 255 0
0.12135 -7.1384e-05 -0.00049937 2 0.073252 -0.58163 -0.81015 0 255 0
0.11731 0.0013286 0.00049641 2 0.0024913 0.00035484 -1 0 255 0
0.11921 0.0017271 -0.0005042 2 0.00010901 -0.00030759 1 0 255 0
0.12144 -0.00047152 0.00048483 2 -8.8095e-05 0.00030741 -1 0 255 0
0.1197 -0.0010737 0.00048923 2 0.01551 0.00047013 -0.99988 0 255 0
0.11723 -0.00017075 -0.00050978 2 0.0025078 0.00033262 -1 0 255 0
0.12141 0.0016284 0.00048541 2 0.00010245 -0.00033359 1 0 255 0
0.11887 0.0023289 0.0004925 2 -0.073558 0.66987 -0.73883 0 255 0
0.12019 0.00062701 -0.00050208 2 7.9189e-05 -0.00032206 1 0 255 0
0.11727 -0.00037124 0.00049602 2 0.0027262 -0.00024189 1 0 255 0
0.12168 0.0030282 0.0004851 2 -9.3986e-05 0.00030597 -1 0 255 0
0.12072 0.0014278 -0.00050049 2 -0.034219 -0.62662 0.77857 0 255 0
0.1204 0.002027 0.00048831 2 0.0026855 -0.00028025 1 0 255 0
0.12089 0.0028295 -0.00049959 2 9.529e-05 -0.0002867 1 0 255 0
0.12182 -0.0010726 -0.00049857 2 7.1281e-05 -0.00030693 1 0 255 0
0.1185 0.00022934 0.00049292 2 0.0024997 0.00032781 -1 0 255 0
0.11953 0.003326 -0.0005028 2 0.023132 0.047965 0.99858 0 255 0
0.11811 0.00072835 -0.00050728 2 7.1761e-05 -0.00027819 1 0 255 0
0.12061 -0.00097353 -0.00050157 2 0.002692 -0.00028242 1 0 255 0
0.12064 0.00092889 0.00048731 2 0.00011026 -0.00029892 1 0 255 0
0.11997 -7.1317e-05 0.00048882 2 0.0027059 -0.0002671 1 0 255 0
0.11822 -0.0006719 -0.00050748 2 0.0027037 -0.00030674 1 0 255 0
0.1181 0.0034271 0.00049489 2 9.3764e-05 -0.00031814 1 0 255 0
0.11842 0.0014288 0.00049342 2 9.9886e-05 -0.00032438 1 0 255 0
