ply
format ascii 1.0
comment author Paulo Abelha (p.abelha at abdn ac uk)
element vertex 1251
property float x
property float y
property float z
property int segm
property uchar red
property uchar green
property uchar blue
end_header
0.21572 -0.089399 0.010794 8 0 255 0
0.16931 -0.11217 -0.0066866 8 0 255 0
0.20624 -0.11784 0.0068265 8 0 255 0
0.20696 -0.084872 0.0086553 8 0 255 0
0.12963 -0.10274 -0.00098981 3 255 0 0
0.045262 -0.099493 -0.00033714 3 255 0 0
0.20559 -0.11957 0.0072607 8 0 255 0
0.17988 -0.10774 -0.0030393 8 0 255 0
0.18228 -0.099523 -0.0031055 8 0 255 0
0.2237 -0.10433 0.011472 8 0 255 0
0.17054 -0.11239 -0.0065234 8 0 255 0
0.15485 -0.10843 -0.0057038 8 0 255 0
0.015829 -0.10084 -0.0006781 14 0 0 255
0.18378 -0.099066 -0.0021591 8 0 255 0
0.0070574 -0.10379 0.0027838 14 0 0 255
0.095162 -0.10082 0.0026061 3 255 0 0
0.00026217 -0.093491 0.0024291 14 0 0 255
0.16154 -0.12018 -0.0041886 8 0 255 0
0.17893 -0.11001 -0.0035432 8 0 255 0
0.19163 -0.12841 0.0045849 8 0 255 0
0.19281 -0.12393 0.0015666 8 0 255 0
0.0549 -0.10206 0.00043488 3 255 0 0
0.17238 -0.11132 -0.0041179 8 0 255 0
0.189 -0.1281 0.0023628 8 0 255 0
0.0077929 -0.10036 0.00022462 14 0 0 255
0.14872 -0.10024 -0.0059753 8 0 255 0
0.21715 -0.10729 0.008287 8 0 255 0
0.12801 -0.1043 -0.00057931 3 255 0 0
0.14807 -0.1058 -0.0085418 8 0 255 0
0.21291 -0.094618 0.0052803 8 0 255 0
0.054511 -0.10369 0.00040534 3 255 0 0
0.1646 -0.10401 -0.0062647 8 0 255 0
0.20653 -0.1166 0.004062 8 0 255 0
0.21572 -0.095896 0.0063072 8 0 255 0
0.2096 -0.092358 0.0068687 8 0 255 0
0.19966 -0.093115 0.0028126 8 0 255 0
0.16335 -0.11057 -0.0050701 8 0 255 0
0.11719 -0.1028 0.0038889 3 255 0 0
0.093404 -0.10185 0.0025997 3 255 0 0
0.11638 -0.097007 0.0022526 3 255 0 0
0.16314 -0.11283 -0.0070776 8 0 255 0
0.054624 -0.099354 0.0027791 3 255 0 0
0.031306 -0.10118 -0.0012743 3 255 0 0
0.052541 -0.1121 0.0026396 3 255 0 0
0.18219 -0.11401 -0.0019651 8 0 255 0
0.19157 -0.10182 -0.00098578 8 0 255 0
0.055121 -0.10094 0.00045145 3 255 0 0
0.12106 -0.10915 0.0033597 3 255 0 0
0.19246 -0.11386 0.00065749 8 0 255 0
0.18324 -0.078446 0.0031896 8 0 255 0
0.14931 -0.099865 -0.0083387 8 0 255 0
0.19679 -0.096139 0.0011779 8 0 255 0
0.11942 -0.09791 0.0035978 3 255 0 0
0.15423 -0.10466 -0.0092071 8 0 255 0
0.19229 -0.10867 -0.0029992 8 0 255 0
0.21649 -0.093564 0.0075808 8 0 255 0
0.1842 -0.12899 0.0030642 8 0 255 0
0.18755 -0.11034 -0.0015907 8 0 255 0
0.17993 -0.11293 -0.0050956 8 0 255 0
0.071972 -0.10621 0.0039605 3 255 0 0
0.044698 -0.10659 -0.00037308 3 255 0 0
0.16665 -0.097081 -0.0075335 8 0 255 0
0.19422 -0.10348 -0.0027962 8 0 255 0
0.2199 -0.097572 0.0079407 8 0 255 0
0.15081 -0.10526 -0.0064914 8 0 255 0
0.12147 -0.09973 0.00078781 3 255 0 0
0.19058 -0.092684 -0.0023657 8 0 255 0
0.16747 -0.12106 -0.0015591 8 0 255 0
0.063972 -0.10557 0.001149 3 255 0 0
0.030927 -0.1114 -0.001284 14 0 0 255
0.18271 -0.079713 3.6761e-05 8 0 255 0
0.21271 -0.10074 0.0036509 8 0 255 0
0.19666 -0.089924 0.0025408 8 0 255 0
0.051244 -0.097269 0.00013613 3 255 0 0
0.14832 -0.096054 -0.0042867 8 0 255 0
0.1181 -0.10519 0.0013142 3 255 0 0
0.059522 -0.097757 0.00080123 3 255 0 0
0.20104 -0.082061 0.0048641 8 0 255 0
0.10744 -0.097607 0.004602 3 255 0 0
0.16395 -0.11226 -0.0046865 8 0 255 0
0.10464 -0.10466 0.0024359 3 255 0 0
0.083599 -0.09813 0.004546 3 255 0 0
0.03878 -0.094105 0.0016514 3 255 0 0
0.037936 -0.095321 -0.00087903 3 255 0 0
0.17806 -0.10706 -0.0064725 8 0 255 0
0.011861 -0.097004 0.0022367 14 0 0 255
0.16459 -0.11768 -0.0029328 8 0 255 0
0.1648 -0.10058 -0.0083555 8 0 255 0
0.17027 -0.11597 -0.0057524 8 0 255 0
0.017558 -0.10644 0.0016064 14 0 0 255
0.21901 -0.11422 0.0098259 8 0 255 0
0.065884 -0.10598 0.0035757 3 255 0 0
0.20533 -0.083358 0.0061681 8 0 255 0
0.019075 -0.10049 -0.0010433 14 0 0 255
0.15586 -0.091056 -0.0056948 8 0 255 0
0.18103 -0.084053 -0.0024395 8 0 255 0
0.18715 -0.082709 0.0020113 8 0 255 0
0.21961 -0.10277 0.0061924 8 0 255 0
0.21245 -0.10081 0.0059208 8 0 255 0
0.21845 -0.10608 0.0061793 8 0 255 0
0.12409 -0.10373 0.00032165 3 255 0 0
0.18306 -0.11815 -0.0031588 8 0 255 0
0.1738 -0.10564 -0.0074433 8 0 255 0
0.17065 -0.10091 -0.0051489 8 0 255 0
0.19828 -0.088009 0.0034925 8 0 255 0
0.17438 -0.10671 -0.0067065 8 0 255 0
0.21404 -0.092975 0.006502 8 0 255 0
0.19716 -0.099651 -0.0015261 8 0 255 0
0.17849 -0.083972 -0.0028054 8 0 255 0
0.050032 -0.10574 0.0024496 3 255 0 0
0.16885 -0.10064 -0.0079721 8 0 255 0
0.18674 -0.10748 -0.0044956 8 0 255 0
0.18878 -0.10808 -0.001011 8 0 255 0
0.14996 -0.10285 -0.0089916 8 0 255 0
0.21726 -0.10218 0.0051351 8 0 255 0
0.02468 -0.10607 0.00092619 14 0 0 255
0.17117 -0.12463 0.00012494 8 0 255 0
0.03265 -0.097526 0.0012833 14 0 0 255
0.19565 -0.089245 0.0023704 8 0 255 0
-0.0030807 -0.10329 0.0014498 14 0 0 255
0.17101 -0.10606 -0.0074768 8 0 255 0
0.18803 -0.079392 0.0038725 8 0 255 0
0.0043678 -0.092299 0.00060111 14 0 0 255
0.16528 -0.089627 -0.0033976 8 0 255 0
-0.0014507 -0.10657 0.00127 14 0 0 255
0.034072 -0.10474 0.0013696 3 255 0 0
0.17804 -0.087231 -0.0015332 8 0 255 0
0.20078 -0.11363 0.00091989 8 0 255 0
0.2219 -0.096639 0.009363 8 0 255 0
0.047668 -0.099169 -0.00014987 3 255 0 0
0.1569 -0.11265 -0.006798 8 0 255 0
0.029682 -0.1106 -0.0013512 14 0 0 255
-0.0024127 -0.11089 0.0029339 14 0 0 255
0.16857 -0.096393 -0.0048016 8 0 255 0
0.014312 -0.10302 0.0019676 14 0 0 255
0.18491 -0.091663 -0.0012034 8 0 255 0
0.12621 -0.10294 -0.00012702 3 255 0 0
0.044981 -0.097577 0.0020786 3 255 0 0
0.032275 -0.10843 -0.0012153 14 0 0 255
0.20604 -0.088307 0.0044066 8 0 255 0
0.19143 -0.12041 -0.00048852 8 0 255 0
0.059203 -0.10305 0.00078101 3 255 0 0
0.058024 -0.10225 0.00068565 3 255 0 0
0.20354 -0.1215 0.0047549 8 0 255 0
0.19518 -0.11351 0.0014289 8 0 255 0
0.057005 -0.09507 0.0029465 3 255 0 0
0.21115 -0.11608 0.00615 8 0 255 0
0.093168 -0.10044 0.0025935 3 255 0 0
0.014137 -0.099074 -0.00048973 14 0 0 255
0.19736 -0.10195 0.00093554 8 0 255 0
0.023493 -0.11031 -0.0015294 14 0 0 255
0.05349 -0.10573 0.00032546 3 255 0 0
0.036186 -0.10319 0.0014904 3 255 0 0
0.17805 -0.078077 0.0024214 8 0 255 0
0.049157 -0.11163 0.0023915 3 255 0 0
0.0025294 -0.092519 0.0011802 14 0 0 255
0.20645 -0.10651 0.0038533 8 0 255 0
0.17199 -0.1189 -0.0024587 8 0 255 0
0.18553 -0.08907 -0.00042755 8 0 255 0
0.026411 -0.10819 0.00099758 14 0 0 255
0.16958 -0.094329 -0.0067082 8 0 255 0
0.023778 -0.099425 -0.0015637 14 0 0 255
0.20601 -0.083239 0.0079857 8 0 255 0
0.070384 -0.1006 0.0016015 3 255 0 0
0.0056254 -0.092147 0.00059942 14 0 0 255
0.082221 -0.095499 0.0040768 3 255 0 0
0.154 -0.11537 -0.0054473 8 0 255 0
0.16822 -0.082747 -0.0029211 8 0 255 0
0.086934 -0.10873 0.0046617 3 255 0 0
0.19768 -0.1201 0.0040195 8 0 255 0
0.17983 -0.10063 -0.0030579 8 0 255 0
0.16011 -0.10857 -0.0056728 8 0 255 0
0.20214 -0.095632 0.00074271 8 0 255 0
0.1249 -0.10684 0.0027433 3 255 0 0
0.02474 -0.10633 -0.0015264 14 0 0 255
0.16475 -0.095578 -0.0073806 8 0 255 0
0.19769 -0.11686 0.0006043 8 0 255 0
0.1639 -0.087077 -0.0047168 8 0 255 0
0.047908 -0.095686 0.0022853 3 255 0 0
0.039148 -0.095252 0.0016767 3 255 0 0
0.038837 -0.099964 0.0016611 3 255 0 0
0.074587 -0.10335 0.0018776 3 255 0 0
0.1906 -0.10709 -0.00059891 8 0 255 0
0.046122 -0.10292 0.0021653 3 255 0 0
0.19886 -0.081944 0.0063927 8 0 255 0
0.17887 -0.095465 -0.0032816 8 0 255 0
0.15243 -0.10669 -0.0060914 8 0 255 0
0.1263 -0.10616 0.0024792 3 255 0 0
0.15072 -0.10759 -0.005566 8 0 255 0
-0.00041181 -0.099566 0.0011459 14 0 0 255
0.152 -0.10426 -0.0094287 8 0 255 0
0.20359 -0.089818 0.0050042 8 0 255 0
0.125 -0.10758 0.00016158 3 255 0 0
0.19729 -0.12251 0.0049448 8 0 255 0
0.0088078 -0.094934 0.0025777 14 0 0 255
0.13365 -0.10541 -0.002279 3 255 0 0
0.18606 -0.092354 -0.0011097 8 0 255 0
0.16306 -0.086066 -0.0042533 8 0 255 0
0.1897 -0.081771 0.0032112 8 0 255 0
0.018771 -0.10954 -0.00099951 14 0 0 255
0.16504 -0.084001 -0.0009964 8 0 255 0
0.083671 -0.096379 0.0045465 3 255 0 0
0.079243 -0.10686 0.0043533 3 255 0 0
0.035109 -0.097815 0.00142 14 0 0 255
0.12067 -0.098426 0.00093211 3 255 0 0
0.046174 -0.11104 0.0021772 3 255 0 0
0.13479 -0.10188 9.1854e-05 3 255 0 0
0.16056 -0.10952 -0.0079072 8 0 255 0
0.21636 -0.093434 0.009921 8 0 255 0
0.035858 -0.097011 -0.0010182 3 255 0 0
0.15409 -0.099739 -0.0087798 8 0 255 0
0.11707 -0.10804 0.0039102 3 255 0 0
0.028257 -0.09314 0.00096579 14 0 0 255
0.18194 -0.095546 -0.0028195 8 0 255 0
0.0011261 -0.093096 0.001078 14 0 0 255
0.16425 -0.090055 -0.0059927 8 0 255 0
0.099351 -0.11011 0.0045083 3 255 0 0
0.045063 -0.10859 -0.00034313 3 255 0 0
0.20214 -0.10081 -0.00032773 8 0 255 0
0.21333 -0.1041 0.0036134 8 0 255 0
0.17358 -0.1168 -0.0027268 8 0 255 0
0.21587 -0.11413 0.010142 8 0 255 0
0.20542 -0.093752 0.0046856 8 0 255 0
0.016962 -0.11368 0.001681 14 0 0 255
0.19574 -0.085618 0.0010773 8 0 255 0
0.19604 -0.10045 0.00063389 8 0 255 0
0.20085 -0.11889 0.0024067 8 0 255 0
0.062363 -0.10496 0.0010261 3 255 0 0
0.21351 -0.097666 0.0069212 8 0 255 0
0.17826 -0.083885 -0.00037588 8 0 255 0
0.085969 -0.1107 0.0027267 3 255 0 0
0.17676 -0.11742 -0.0045431 8 0 255 0
0.080043 -0.096744 0.0043805 3 255 0 0
0.058732 -0.10354 0.0030787 3 255 0 0
0.084587 -0.10317 0.0023717 3 255 0 0
0.057553 -0.10494 0.00065056 3 255 0 0
0.15468 -0.10989 -0.0051335 8 0 255 0
0.013537 -0.11073 -0.00041006 14 0 0 255
0.10372 -0.10782 0.002473 3 255 0 0
0.16421 -0.083049 -0.002771 8 0 255 0
0.22695 -0.10298 0.013711 8 0 255 0
0.14501 -0.10066 -0.007901 8 0 255 0
0.20229 -0.081391 0.0070972 8 0 255 0
0.0035826 -0.096415 0.0031666 14 0 0 255
0.18028 -0.11886 -0.0035697 8 0 255 0
0.18628 -0.10167 -0.0040014 8 0 255 0
0.21138 -0.096227 0.0063826 8 0 255 0
0.052119 -0.09756 0.002594 3 255 0 0
0.18405 -0.096668 -0.0050359 8 0 255 0
0.053204 -0.10133 0.0026772 3 255 0 0
0.018684 -0.10933 0.0014829 14 0 0 255
0.025375 -0.099058 0.00094683 14 0 0 255
0.14506 -0.1037 -0.0053991 8 0 255 0
0.039673 -0.10284 0.0017188 3 255 0 0
0.014577 -0.10031 -0.00053788 14 0 0 255
0.044299 -0.096581 0.0020289 3 255 0 0
0.16389 -0.1189 -0.0048452 8 0 255 0
0.059909 -0.10068 0.00083524 3 255 0 0
0.0018454 -0.10501 0.0033708 14 0 0 255
0.027031 -0.094106 0.001008 14 0 0 255
0.20872 -0.11809 0.0080883 8 0 255 0
0.18968 -0.085983 0.001377 8 0 255 0
0.16985 -0.097159 -0.0072777 8 0 255 0
0.044679 -0.10518 -0.00037598 3 255 0 0
0.012441 -0.11358 0.002189 14 0 0 255
0.20628 -0.11483 0.0055653 8 0 255 0
0.010227 -0.10567 -4.3384e-05 14 0 0 255
0.20313 -0.084717 0.006946 8 0 255 0
0.16496 -0.11932 -0.0047101 8 0 255 0
0.20392 -0.0979 0.00090885 8 0 255 0
0.20525 -0.11006 0.0017415 8 0 255 0
0.0055746 -0.092136 0.0027883 14 0 0 255
0.193 -0.094253 -0.0020112 8 0 255 0
0.13825 -0.1074 -0.0041839 3 255 0 0
0.1955 -0.098931 0.00050989 8 0 255 0
0.19435 -0.1197 0.0025998 8 0 255 0
0.060904 -0.10473 0.00091503 3 255 0 0
0.067676 -0.10109 0.0036902 3 255 0 0
0.070568 -0.11138 0.0016382 3 255 0 0
0.06942 -0.10642 0.001542 3 255 0 0
0.049009 -0.10768 -3.3264e-05 3 255 0 0
0.18993 -0.082176 0.00068224 8 0 255 0
0.096037 -0.10427 0.0048329 3 255 0 0
0.21755 -0.097956 0.0065325 8 0 255 0
0.22048 -0.099669 0.0074914 8 0 255 0
0.17568 -0.12649 -0.0011011 8 0 255 0
0.19823 -0.085496 0.0021621 8 0 255 0
0.044516 -0.10405 0.002052 3 255 0 0
0.20941 -0.11127 0.00591 8 0 255 0
0.061834 -0.099654 0.00098058 3 255 0 0
0.12809 -0.10716 0.0021059 3 255 0 0
0.12906 -0.099479 0.0018399 3 255 0 0
0.11553 -0.096966 0.0032468 3 255 0 0
0.19457 -0.094152 0.00091342 8 0 255 0
0.0084279 -0.092265 0.0018222 14 0 0 255
0.093361 -0.11038 0.0040925 3 255 0 0
0.14596 -0.10047 -0.0057269 8 0 255 0
0.15354 -0.11332 -0.0037059 8 0 255 0
0.025041 -0.11095 0.00094562 14 0 0 255
0.20496 -0.098765 0.00112 8 0 255 0
0.17867 -0.090316 -0.0021703 8 0 255 0
0.18983 -0.082905 0.0027001 8 0 255 0
0.17987 -0.11407 -0.0024065 8 0 255 0
0.18142 -0.12593 -0.00055163 8 0 255 0
0.041585 -0.10292 -0.00061525 3 255 0 0
0.055251 -0.10228 0.002828 3 255 0 0
0.055909 -0.10626 0.00052002 3 255 0 0
0.1722 -0.091696 -0.0058518 8 0 255 0
0.16256 -0.087045 -0.0046486 8 0 255 0
0.028085 -0.11129 0.0010677 14 0 0 255
0.093241 -0.10904 0.0026038 3 255 0 0
0.072533 -0.098692 0.0017456 3 255 0 0
0.029464 -0.093202 -0.0012516 14 0 0 255
0.022644 -0.098167 -0.0014467 14 0 0 255
0.15291 -0.098927 -0.0083423 8 0 255 0
0.014463 -0.10147 0.001949 14 0 0 255
0.16717 -0.10696 -0.0055103 8 0 255 0
0.19474 -0.079147 0.0037427 8 0 255 0
0.19136 -0.10806 -0.0010288 8 0 255 0
0.051098 -0.11127 0.0001385 3 255 0 0
0.13658 -0.09791 -0.0014953 3 255 0 0
0.1982 -0.081691 0.0038527 8 0 255 0
0.20782 -0.085628 0.0063648 8 0 255 0
0.16427 -0.08442 -0.0036026 8 0 255 0
0.11419 -0.10823 0.001794 3 255 0 0
0.21281 -0.09807 0.0041888 8 0 255 0
0.20735 -0.11931 0.0055941 8 0 255 0
0.081061 -0.10054 0.0022276 3 255 0 0
0.19481 -0.096949 -0.0020381 8 0 255 0
0.054456 -0.10997 0.00040726 3 255 0 0
0.1669 -0.094948 -0.0070833 8 0 255 0
0.18972 -0.10842 -0.0038155 8 0 255 0
0.13332 -0.09776 0.00011229 3 255 0 0
0.0031917 -0.09415 0.0032081 14 0 0 255
0.20322 -0.10238 0.0022707 8 0 255 0
0.15761 -0.11653 -0.0028834 8 0 255 0
0.19027 -0.12378 0.00063462 8 0 255 0
0.15325 -0.10358 -0.0070266 8 0 255 0
0.19508 -0.12076 0.0032776 8 0 255 0
0.031095 -0.1055 0.0012051 3 255 0 0
0.0073725 -0.11229 0.0002844 14 0 0 255
0.034566 -0.10658 -0.0010951 3 255 0 0
0.21977 -0.11137 0.0088628 8 0 255 0
0.011216 -0.10219 -0.00015815 14 0 0 255
0.16542 -0.10514 -0.0084307 8 0 255 0
0.21611 -0.095416 0.0090539 8 0 255 0
0.16276 -0.092945 -0.00457 8 0 255 0
0.16586 -0.10317 -0.0087787 8 0 255 0
0.16316 -0.10285 -0.0064476 8 0 255 0
0.10895 -0.098951 0.0022072 3 255 0 0
0.20117 -0.08587 0.0055938 8 0 255 0
0.064065 -0.094708 0.0023695 3 255 0 0
0.078026 -0.11063 0.0043002 3 255 0 0
0.21034 -0.11201 0.0064861 8 0 255 0
0.17904 -0.089433 -0.0043166 8 0 255 0
0.0068713 -0.11383 0.00034234 14 0 0 255
0.013658 -0.095797 0.0020335 14 0 0 255
0.19016 -0.10082 -0.0037232 8 0 255 0
0.16623 -0.085841 -0.0042863 8 0 255 0
0.21372 -0.1168 0.0077353 8 0 255 0
0.20583 -0.099708 0.001251 8 0 255 0
0.053514 -0.10003 0.0026986 3 255 0 0
0.045461 -0.10866 0.002124 3 255 0 0
0.096784 -0.10284 0.0048402 3 255 0 0
0.17299 -0.11245 -0.003797 8 0 255 0
0.032639 -0.11306 0.00074195 14 0 0 255
0.029841 -0.094498 -0.0013591 14 0 0 255
0.15702 -0.11428 -0.0061847 8 0 255 0
0.075289 -0.1043 0.0019179 3 255 0 0
0.14702 -0.10505 -0.0084424 8 0 255 0
0.10334 -0.10852 0.0047739 3 255 0 0
0.18239 -0.12858 0.00097236 8 0 255 0
0.097657 -0.10701 0.0025985 3 255 0 0
0.21888 -0.10398 0.0057939 8 0 255 0
0.11798 -0.1069 0.003792 3 255 0 0
0.18801 -0.083217 -0.00038324 8 0 255 0
0.18104 -0.10492 -0.0033813 8 0 255 0
0.17665 -0.088805 -0.0045614 8 0 255 0
0.18879 -0.12163 0.0015643 8 0 255 0
0.033655 -0.095984 0.0013375 14 0 0 255
0.19154 -0.10292 -0.00038816 8 0 255 0
0.19659 -0.11416 0.0020304 8 0 255 0
0.14197 -0.098272 -0.0034688 8 0 255 0
0.12654 -0.1014 0.0024289 3 255 0 0
0.04885 -0.09468 0.0023519 3 255 0 0
0.19005 -0.083949 0.0022601 8 0 255 0
0.21677 -0.096815 0.0088926 8 0 255 0
0.046017 -0.093946 0.0021487 3 255 0 0
0.084363 -0.097653 0.0023571 3 255 0 0
0.078532 -0.095343 0.0023671 3 255 0 0
0.1131 -0.09686 0.0029068 3 255 0 0
0.20533 -0.10373 0.00049114 8 0 255 0
0.17375 -0.088151 -0.0048394 8 0 255 0
0.1956 -0.095939 0.00084132 8 0 255 0
0.21224 -0.10844 0.0040156 8 0 255 0
0.07392 -0.099753 0.0018366 3 255 0 0
0.10109 -0.10269 0.0025646 3 255 0 0
0.174 -0.10436 -0.0049869 8 0 255 0
0.16492 -0.097968 -0.0078432 8 0 255 0
0.12496 -0.10175 0.00016299 3 255 0 0
0.19774 -0.1029 -0.0013914 8 0 255 0
0.22174 -0.10954 0.0092405 8 0 255 0
0.019308 -0.11192 -0.0010574 14 0 0 255
0.18669 -0.08688 0.0003826 8 0 255 0
-0.00048672 -0.11057 0.0011659 14 0 0 255
0.19285 -0.10091 -0.0031099 8 0 255 0
0.063453 -0.11084 0.0034186 3 255 0 0
0.17572 -0.1031 -0.0045955 8 0 255 0
0.040875 -0.10468 0.0017996 3 255 0 0
0.18772 -0.088381 0.00028612 8 0 255 0
0.19256 -0.10536 -0.0001539 8 0 255 0
0.14417 -0.10285 -0.0050419 8 0 255 0
0.16572 -0.11593 -0.0061891 8 0 255 0
0.034081 -0.10364 -0.001124 3 255 0 0
0.17373 -0.095971 -0.0066197 8 0 255 0
0.1976 -0.10982 -0.0010068 8 0 255 0
0.21166 -0.11411 0.0079912 8 0 255 0
0.21145 -0.11752 0.0092452 8 0 255 0
0.14766 -0.10349 -0.0060636 8 0 255 0
0.18826 -0.1088 -0.0017328 8 0 255 0
0.18549 -0.082388 0.0017728 8 0 255 0
0.079047 -0.096172 0.0043333 3 255 0 0
0.091205 -0.10102 0.0047722 3 255 0 0
0.18159 -0.10432 -0.0056712 8 0 255 0
-0.0030017 -0.097451 0.0014348 14 0 0 255
0.14726 -0.10187 -0.0084832 8 0 255 0
0.18344 -0.12808 0.00096592 8 0 255 0
0.21192 -0.097159 0.0040144 8 0 255 0
0.15534 -0.089596 -0.0026421 8 0 255 0
0.026671 -0.11333 -0.00032627 14 0 0 255
0.12281 -0.10231 0.0031316 3 255 0 0
0.18145 -0.092416 -0.0021559 8 0 255 0
0.18377 -0.095638 -0.0045787 8 0 255 0
0.064864 -0.10781 0.001219 3 255 0 0
0.20148 -0.11772 0.0045686 8 0 255 0
0.019096 -0.10001 0.0014268 14 0 0 255
0.19126 -0.11848 0.0014061 8 0 255 0
0.17002 -0.1247 0.00010843 8 0 255 0
0.052979 -0.094225 0.0012956 3 255 0 0
0.0089958 -0.094316 8.3083e-05 14 0 0 255
0.1998 -0.087612 0.0018636 8 0 255 0
0.17377 -0.092184 -0.0057675 8 0 255 0
0.19689 -0.12628 0.0041301 8 0 255 0
0.16142 -0.086206 -0.0017617 8 0 255 0
0.11039 -0.10185 0.0021019 3 255 0 0
0.066393 -0.096039 0.0013233 3 255 0 0
0.14183 -0.10078 -0.0033608 8 0 255 0
0.19437 -0.096627 0.00029184 8 0 255 0
0.17938 -0.12865 0.0028778 8 0 255 0
0.13682 -0.10844 -0.0010547 3 255 0 0
0.1179 -0.099928 0.0013326 3 255 0 0
0.17302 -0.10031 -0.0052027 8 0 255 0
0.18783 -0.11752 0.0002343 8 0 255 0
0.020324 -0.10411 -0.0011798 14 0 0 255
0.18377 -0.097928 -0.0027674 8 0 255 0
0.14979 -0.098574 -0.0078781 8 0 255 0
0.19798 -0.099775 0.00081246 8 0 255 0
0.11369 -0.10391 0.0042104 3 255 0 0
0.12501 -0.10019 0.00015125 3 255 0 0
0.21474 -0.11142 0.008523 8 0 255 0
0.028655 -0.10643 0.0010855 14 0 0 255
0.1935 -0.11847 -0.00034472 8 0 255 0
0.17669 -0.12378 0.00013038 8 0 255 0
0.064305 -0.10664 0.0011753 3 255 0 0
0.1877 -0.090356 -0.0002003 8 0 255 0
0.10603 -0.10373 0.0023835 3 255 0 0
0.18569 -0.10625 -0.0041317 8 0 255 0
0.19391 -0.080989 0.0025801 8 0 255 0
0.14564 -0.10856 -0.0051309 8 0 255 0
0.085312 -0.10096 0.0046027 3 255 0 0
0.17489 -0.097634 -0.006854 8 0 255 0
0.14862 -0.098232 -0.0076358 8 0 255 0
0.15367 -0.11167 -0.0043459 8 0 255 0
0.097965 -0.11017 0.0042317 3 255 0 0
0.023072 -0.10621 0.0009864 14 0 0 255
0.21554 -0.10059 0.0047695 8 0 255 0
0.15657 -0.1078 -0.0060353 8 0 255 0
0.09047 -0.095859 0.0045667 3 255 0 0
0.17474 -0.12775 0.0014199 8 0 255 0
0.21879 -0.096856 0.0076083 8 0 255 0
0.2071 -0.085975 0.0082579 8 0 255 0
0.17044 -0.0943 -0.0041838 8 0 255 0
-0.0017243 -0.099003 0.0037657 14 0 0 255
0.21501 -0.097912 0.005178 8 0 255 0
0.20106 -0.087739 0.0047094 8 0 255 0
0.075804 -0.10734 0.0041857 3 255 0 0
0.14504 -0.1047 -0.0079057 3 255 0 0
0.19624 -0.090872 -0.00020602 8 0 255 0
0.19445 -0.093252 -0.0013216 8 0 255 0
0.049683 -0.10406 1.7293e-05 3 255 0 0
0.19302 -0.10426 -0.0030673 8 0 255 0
0.21083 -0.1112 0.0040417 8 0 255 0
0.16697 -0.098386 -0.0053311 8 0 255 0
0.18089 -0.1222 -0.0024665 8 0 255 0
0.10748 -0.10975 0.00337 3 255 0 0
0.2097 -0.121 0.0083097 8 0 255 0
0.012758 -0.11395 0.00090805 14 0 0 255
0.046321 -0.096654 0.0021731 3 255 0 0
0.16843 -0.12375 -0.0028135 8 0 255 0
0.17414 -0.11839 -0.0022837 8 0 255 0
0.22639 -0.10455 0.011066 8 0 255 0
0.042232 -0.10742 -0.00056112 3 255 0 0
0.079901 -0.10964 0.0021818 3 255 0 0
0.19105 -0.10664 -0.0029115 8 0 255 0
0.1889 -0.080133 0.0013665 8 0 255 0
0.076317 -0.10007 0.0019712 3 255 0 0
0.11458 -0.101 0.0017386 3 255 0 0
0.22282 -0.10654 0.0088976 8 0 255 0
0.166 -0.090737 -0.0062868 8 0 255 0
-0.0011705 -0.097278 0.0012288 14 0 0 255
0.21427 -0.10459 0.0040699 8 0 255 0
0.081003 -0.11093 0.0043896 3 255 0 0
0.15675 -0.11025 -0.0077017 8 0 255 0
0.19405 -0.084038 0.0035952 8 0 255 0
0.18388 -0.086727 -0.00022688 8 0 255 0
0.22193 -0.094972 0.01236 8 0 255 0
0.16585 -0.098882 -0.0055144 8 0 255 0
0.16056 -0.10536 -0.0062611 8 0 255 0
0.022284 -0.096859 -0.0014077 14 0 0 255
0.1765 -0.080831 -0.0015366 8 0 255 0
0.12961 -0.10398 -0.00098304 3 255 0 0
0.042054 -0.11265 0.0010741 3 255 0 0
0.023448 -0.092929 0.00086263 14 0 0 255
0.18301 -0.092529 -0.0042628 8 0 255 0
0.065486 -0.10413 0.0012626 3 255 0 0
0.076274 -0.10137 0.0042071 3 255 0 0
0.059043 -0.099457 0.00076457 3 255 0 0
0.19982 -0.087538 0.0042885 8 0 255 0
0.021576 -0.095618 -0.0013294 14 0 0 255
0.17295 -0.12304 -0.0029827 8 0 255 0
0.16545 -0.1088 -0.0052734 8 0 255 0
0.12198 -0.10911 0.002607 3 255 0 0
0.010138 -0.1049 0.0024387 14 0 0 255
0.22501 -0.10635 0.012674 8 0 255 0
0.17467 -0.08572 -0.0016158 8 0 255 0
0.064691 -0.095662 0.0034857 3 255 0 0
-0.0023267 -0.11109 0.001471 14 0 0 255
0.15163 -0.093482 -0.0061484 8 0 255 0
0.098682 -0.11014 0.0027695 3 255 0 0
0.063905 -0.11124 0.0011496 3 255 0 0
0.1893 -0.12079 -0.00099064 8 0 255 0
0.19834 -0.10386 -0.001857 8 0 255 0
0.040834 -0.10731 0.0017996 3 255 0 0
0.19086 -0.080443 0.0041926 8 0 255 0
0.20852 -0.088701 0.0054062 8 0 255 0
0.17216 -0.12051 -0.0017461 8 0 255 0
0.17562 -0.094206 -0.0035502 8 0 255 0
0.010848 -0.1096 0.0023639 14 0 0 255
0.0582 -0.10042 0.00069792 3 255 0 0
0.015597 -0.10347 -0.00064921 14 0 0 255
0.084428 -0.099709 0.0045737 3 255 0 0
0.18385 -0.082015 0.0015824 8 0 255 0
0.20305 -0.11295 0.00156 8 0 255 0
0.035894 -0.093482 -0.00059281 3 255 0 0
0.10566 -0.10704 0.0046884 3 255 0 0
0.17979 -0.089845 -0.0018539 8 0 255 0
0.21095 -0.12019 0.0086402 8 0 255 0
0.11153 -0.10586 0.0020208 3 255 0 0
0.1024 -0.10144 0.0047785 3 255 0 0
0.21313 -0.088471 0.0078262 8 0 255 0
0.22368 -0.10621 0.011746 8 0 255 0
0.01864 -0.10289 -0.00099178 14 0 0 255
0.020714 -0.10805 0.0012534 14 0 0 255
-0.0012815 -0.10496 0.0012493 14 0 0 255
0.045766 -0.095216 -0.00030281 3 255 0 0
0.14602 -0.10184 -0.0057479 8 0 255 0
0.089161 -0.10011 0.0025141 3 255 0 0
0.14115 -0.10743 -0.0028687 3 255 0 0
0.049525 -0.11082 1.1396e-05 3 255 0 0
0.16715 -0.11756 -0.00555 8 0 255 0
0.082375 -0.10182 0.0044948 3 255 0 0
0.15552 -0.10387 -0.009279 8 0 255 0
0.19489 -0.12319 0.0043527 8 0 255 0
0.10335 -0.10515 0.0047703 3 255 0 0
0.21369 -0.10252 0.0036946 8 0 255 0
0.17374 -0.082749 -0.0027228 8 0 255 0
0.16064 -0.11344 -0.0043846 8 0 255 0
0.17562 -0.12247 -0.00060234 8 0 255 0
-0.0034944 -0.099228 0.0039649 14 0 0 255
0.083402 -0.10331 0.0045444 3 255 0 0
0.17957 -0.12138 -0.0030806 8 0 255 0
0.19884 -0.099159 0.0012426 8 0 255 0
0.17891 -0.11254 -0.0053667 8 0 255 0
0.0075155 -0.095364 0.0027234 14 0 0 255
0.20506 -0.10555 0.0031477 8 0 255 0
0.15467 -0.093208 -0.0039159 8 0 255 0
0.068463 -0.09876 0.0037403 3 255 0 0
0.16093 -0.091798 -0.0064614 8 0 255 0
0.18011 -0.08201 0.00083327 8 0 255 0
0.22129 -0.093935 0.012395 8 0 255 0
0.22102 -0.097878 0.010793 8 0 255 0
0.15715 -0.097146 -0.0081519 8 0 255 0
0.04777 -0.11052 0.0022905 3 255 0 0
0.1931 -0.080123 0.0026992 8 0 255 0
0.065261 -0.094758 0.0028662 3 255 0 0
0.2126 -0.11764 0.0098752 8 0 255 0
0.16868 -0.1176 -0.0055609 8 0 255 0
0.11316 -0.10205 0.0042514 3 255 0 0
0.023826 -0.099194 0.00089435 14 0 0 255
0.20408 -0.10772 0.0032269 8 0 255 0
0.10171 -0.096629 0.0047823 3 255 0 0
0.17338 -0.10176 -0.0051299 8 0 255 0
0.20292 -0.095704 0.0033922 8 0 255 0
0.19806 -0.10688 0.00091547 8 0 255 0
0.078823 -0.11102 0.0035606 3 255 0 0
0.15133 -0.11067 -0.0044569 8 0 255 0
0.12608 -0.10272 0.0025174 3 255 0 0
0.18131 -0.10082 -0.0033248 8 0 255 0
0.1799 -0.12671 -0.00041806 8 0 255 0
0.19242 -0.12693 0.0052343 8 0 255 0
0.12814 -0.10872 0.0020946 3 255 0 0
-0.003351 -0.10551 0.0039554 14 0 0 255
0.013638 -0.10688 -0.00042547 14 0 0 255
0.025819 -0.11337 0.00084338 14 0 0 255
0.208 -0.095179 0.0029595 8 0 255 0
0.17866 -0.11431 -0.0025575 8 0 255 0
0.16601 -0.10161 -0.0084687 8 0 255 0
0.15663 -0.10722 -0.0085831 8 0 255 0
0.20598 -0.086213 0.0076381 8 0 255 0
0.21387 -0.10586 0.004156 8 0 255 0
0.21062 -0.1199 0.0074048 8 0 255 0
0.20691 -0.12069 0.0083502 8 0 255 0
0.048113 -0.096353 -0.00011694 3 255 0 0
0.055226 -0.1065 0.0028304 3 255 0 0
0.17142 -0.085853 -0.0018231 8 0 255 0
0.18523 -0.083476 -0.0012318 8 0 255 0
0.056792 -0.096704 0.0029329 3 255 0 0
0.20762 -0.11589 0.0042884 8 0 255 0
0.19156 -0.097535 -0.0028042 8 0 255 0
0.14186 -0.10794 -0.0061477 8 0 255 0
0.025763 -0.098242 -0.0015024 14 0 0 255
0.11022 -0.097396 0.0044822 3 255 0 0
0.21471 -0.10375 0.0064676 8 0 255 0
0.10576 -0.10251 0.0023922 3 255 0 0
0.18702 -0.12238 0.0014102 8 0 255 0
0.19434 -0.11184 -0.0016197 8 0 255 0
0.18735 -0.096849 -0.0037629 8 0 255 0
0.1929 -0.11967 0.0021682 8 0 255 0
0.21778 -0.099866 0.0059469 8 0 255 0
0.18921 -0.0999 -0.0039396 8 0 255 0
0.20805 -0.11837 0.0055193 8 0 255 0
0.19509 -0.083476 0.0018358 8 0 255 0
0.15656 -0.088801 -0.0048833 8 0 255 0
0.20298 -0.10792 0.00046926 8 0 255 0
0.020615 -0.098618 -0.0012182 14 0 0 255
0.18071 -0.089357 -0.0039747 8 0 255 0
0.06294 -0.10684 0.0010718 3 255 0 0
0.019809 -0.11363 -0.00068644 14 0 0 255
0.18544 -0.094571 -0.0017863 8 0 255 0
0.17996 -0.10391 -0.0054394 8 0 255 0
0.1153 -0.10864 0.0016588 3 255 0 0
0.07764 -0.1023 0.0042737 3 255 0 0
0.20316 -0.1188 0.0034297 8 0 255 0
0.16022 -0.085663 -0.0038374 8 0 255 0
0.16621 -0.1193 -0.0047689 8 0 255 0
0.1913 -0.08936 0.0010327 8 0 255 0
0.22593 -0.10711 0.011979 8 0 255 0
0.20905 -0.11339 0.0063828 8 0 255 0
0.015874 -0.11236 -0.00067099 14 0 0 255
0.0050714 -0.10137 0.00053156 14 0 0 255
0.07622 -0.095241 0.0025665 3 255 0 0
0.15997 -0.10416 -0.0089632 8 0 255 0
0.17393 -0.10442 -0.0068118 8 0 255 0
0.14841 -0.10137 -0.0086626 8 0 255 0
0.10541 -0.10571 0.0024088 3 255 0 0
0.12671 -0.097471 -9.4664e-05 3 255 0 0
0.19893 -0.12135 0.0027209 8 0 255 0
0.2252 -0.099256 0.010589 8 0 255 0
0.19983 -0.10165 -0.00091523 8 0 255 0
0.0014267 -0.10265 0.00094253 14 0 0 255
0.18798 -0.098207 -0.0018083 8 0 255 0
0.080315 -0.099288 0.0021944 3 255 0 0
0.21745 -0.095555 0.0097229 8 0 255 0
0.075856 -0.10528 0.0041866 3 255 0 0
0.0037524 -0.097841 0.003149 14 0 0 255
0.077363 -0.1009 0.0042593 3 255 0 0
0.0078955 -0.093731 0.002679 14 0 0 255
0.13443 -0.10455 -0.00255 3 255 0 0
0.21321 -0.11581 0.0094531 8 0 255 0
0.20443 -0.089803 0.0030283 8 0 255 0
0.12139 -0.10723 0.00081075 3 255 0 0
0.21134 -0.10064 0.0055248 8 0 255 0
0.12073 -0.10122 0.00092365 3 255 0 0
0.1911 -0.078653 0.002725 8 0 255 0
0.021932 -0.10942 0.0011179 14 0 0 255
0.14997 -0.09459 -0.0063786 8 0 255 0
0.17695 -0.12112 -0.0011181 8 0 255 0
0.21186 -0.09013 0.0065303 8 0 255 0
0.15693 -0.11682 -0.0051794 8 0 255 0
0.17863 -0.079658 -0.00068034 8 0 255 0
0.06277 -0.10344 0.0033656 3 255 0 0
0.15706 -0.098379 -0.0059814 8 0 255 0
0.073416 -0.10832 0.0018153 3 255 0 0
0.18763 -0.11571 -0.00026118 8 0 255 0
0.21458 -0.094763 0.0061103 8 0 255 0
0.18584 -0.1192 0.00014926 8 0 255 0
0.18272 -0.095253 -0.0049926 8 0 255 0
0.1925 -0.11166 0.0001482 8 0 255 0
0.077124 -0.1092 0.0042565 3 255 0 0
0.048073 -0.11238 0.0021743 3 255 0 0
0.18817 -0.099128 -0.0035735 8 0 255 0
0.046665 -0.11244 0.0010923 3 255 0 0
0.19352 -0.09947 -0.0023551 8 0 255 0
0.051836 -0.10019 0.00018678 3 255 0 0
0.12141 -0.10503 0.00080415 3 255 0 0
0.1574 -0.10366 -0.0092078 8 0 255 0
0.16917 -0.10717 -0.0077471 8 0 255 0
0.21924 -0.092214 0.011044 8 0 255 0
0.074142 -0.10118 0.0040823 3 255 0 0
0.019018 -0.11367 0.00033992 14 0 0 255
0.089334 -0.11056 0.0047121 3 255 0 0
0.02206 -0.09835 0.0010919 14 0 0 255
0.19759 -0.10813 0.001021 8 0 255 0
0.15684 -0.096845 -0.0055329 8 0 255 0
0.12114 -0.10914 0.00090543 3 255 0 0
0.17268 -0.10606 -0.0070946 8 0 255 0
0.2039 -0.11892 0.0062021 8 0 255 0
0.077361 -0.0955 0.0020251 3 255 0 0
0.20754 -0.090549 0.0041805 8 0 255 0
0.010436 -0.11381 0.0024145 14 0 0 255
0.18842 -0.10082 -0.0017055 8 0 255 0
0.19559 -0.092517 0.0016075 8 0 255 0
0.20411 -0.1176 0.0033603 8 0 255 0
0.15038 -0.10088 -0.008836 8 0 255 0
0.17187 -0.10215 -0.005474 8 0 255 0
0.11059 -0.10734 0.0020926 3 255 0 0
0.16144 -0.096707 -0.0078352 8 0 255 0
0.21459 -0.1175 0.010824 8 0 255 0
0.22396 -0.096232 0.011511 8 0 255 0
0.18187 -0.080616 -0.00059795 8 0 255 0
0.18957 -0.10072 -0.0014438 8 0 255 0
0.0050806 -0.10756 0.00053702 14 0 0 255
0.20632 -0.10193 0.00098984 8 0 255 0
0.013191 -0.096891 -0.00038576 14 0 0 255
0.080353 -0.10005 0.0043984 3 255 0 0
0.010283 -0.11365 -4.1235e-05 14 0 0 255
0.15913 -0.10219 -0.0090134 8 0 255 0
0.030258 -0.098046 -0.0013333 14 0 0 255
0.13032 -0.10873 0.00026755 3 255 0 0
0.020614 -0.10534 -0.0012111 14 0 0 255
0.024152 -0.10159 -0.0015497 14 0 0 255
0.19553 -0.092208 -0.00073955 8 0 255 0
0.16971 -0.095507 -0.004507 8 0 255 0
0.17507 -0.091493 -0.0030035 8 0 255 0
0.16485 -0.11343 -0.0068166 8 0 255 0
0.10989 -0.10297 0.0021404 3 255 0 0
0.047363 -0.10862 0.0022596 3 255 0 0
0.17656 -0.11993 -0.0015484 8 0 255 0
0.042846 -0.1114 0.0019403 3 255 0 0
0.039192 -0.11277 0.00068551 3 255 0 0
0.22359 -0.10313 0.011323 8 0 255 0
0.19567 -0.12191 0.0040286 8 0 255 0
0.11828 -0.10328 0.0012906 3 255 0 0
0.19479 -0.082033 0.0024077 8 0 255 0
0.21133 -0.087616 0.0072583 8 0 255 0
0.18967 -0.1075 -0.0014131 8 0 255 0
0.15061 -0.10926 -0.0049124 8 0 255 0
0.16921 -0.094179 -0.0042753 8 0 255 0
0.084732 -0.11076 0.0031285 3 255 0 0
0.19611 -0.12185 0.0017742 8 0 255 0
0.21467 -0.096069 0.0080351 8 0 255 0
0.19334 -0.091717 0.0010699 8 0 255 0
0.18585 -0.10833 -0.004697 8 0 255 0
0.10603 -0.10006 0.0046652 3 255 0 0
0.18417 -0.11938 -0.00018559 8 0 255 0
0.15165 -0.11363 -0.0056385 8 0 255 0
0.19026 -0.11908 0.0012582 8 0 255 0
0.042378 -0.10858 -0.00054877 3 255 0 0
0.19075 -0.088136 -0.0012402 8 0 255 0
-0.00061663 -0.11238 0.001904 14 0 0 255
0.20687 -0.10958 0.0046329 8 0 255 0
0.20123 -0.098622 0.0021842 8 0 255 0
0.21141 -0.099742 0.0033348 8 0 255 0
0.17494 -0.092825 -0.0033258 8 0 255 0
0.023769 -0.11047 0.00091256 14 0 0 255
0.20712 -0.099194 0.0042187 8 0 255 0
0.0060014 -0.10137 0.0028999 14 0 0 255
0.10872 -0.10625 0.0045559 3 255 0 0
0.12978 -0.10056 -0.0010319 3 255 0 0
0.2108 -0.086006 0.0087525 8 0 255 0
0.03907 -0.11153 0.0016881 3 255 0 0
0.0067378 -0.1043 0.00034734 14 0 0 255
0.18123 -0.10993 -0.0027308 8 0 255 0
0.023453 -0.092936 -0.00060168 14 0 0 255
0.074568 -0.099008 0.0041049 3 255 0 0
0.024453 -0.096581 0.00090746 14 0 0 255
0.002496 -0.094297 0.00081358 14 0 0 255
0.16408 -0.088646 -0.0053907 8 0 255 0
0.11114 -0.10361 0.0044159 3 255 0 0
0.081308 -0.10413 0.0044472 3 255 0 0
0.14336 -0.099398 -0.0044603 8 0 255 0
0.063562 -0.10412 0.0011164 3 255 0 0
0.21049 -0.11839 0.0091043 8 0 255 0
0.13395 -0.10857 -1.3675e-05 3 255 0 0
0.19632 -0.09816 0.00069555 8 0 255 0
0.18678 -0.11248 -0.0036792 8 0 255 0
0.20239 -0.12166 0.0042905 8 0 255 0
0.16634 -0.092549 -0.0041989 8 0 255 0
0.092698 -0.098125 0.0025819 3 255 0 0
0.19357 -0.085468 0.0027515 8 0 255 0
0.17722 -0.080383 0.0011831 8 0 255 0
0.18902 -0.10739 -0.0039758 8 0 255 0
0.15006 -0.11171 -0.0063948 8 0 255 0
0.16921 -0.088798 -0.0055496 8 0 255 0
0.20832 -0.10372 0.0016227 8 0 255 0
0.049077 -0.11027 0.0023843 3 255 0 0
0.056342 -0.10149 0.0029055 3 255 0 0
0.15003 -0.097489 -0.0074795 8 0 255 0
0.024214 -0.094038 0.00089529 14 0 0 255
0.16876 -0.11132 -0.0044819 8 0 255 0
0.19351 -0.11286 -0.0016537 8 0 255 0
0.20177 -0.11992 0.0032628 8 0 255 0
0.040061 -0.10567 -0.0007244 3 255 0 0
0.178 -0.12853 0.0005352 8 0 255 0
0.11541 -0.10742 0.0016443 3 255 0 0
0.092264 -0.09981 0.0047835 3 255 0 0
0.015954 -0.098881 0.0017787 14 0 0 255
0.11134 -0.10641 0.0044032 3 255 0 0
0.085421 -0.10703 0.0046123 3 255 0 0
0.089679 -0.097353 0.0025215 3 255 0 0
0.018433 -0.096638 -0.00097517 14 0 0 255
0.16291 -0.10981 -0.0076917 8 0 255 0
0.199 -0.1014 0.00082019 8 0 255 0
0.16673 -0.10874 -0.0051841 8 0 255 0
0.17017 -0.12622 -0.00029518 8 0 255 0
0.21351 -0.093819 0.0058993 8 0 255 0
0.21656 -0.11628 0.010072 8 0 255 0
0.050503 -0.094121 8.8329e-05 3 255 0 0
0.17965 -0.096631 -0.0059319 8 0 255 0
0.17371 -0.12629 -0.0013923 8 0 255 0
-0.0013803 -0.11176 0.0025937 14 0 0 255
0.19277 -0.079031 0.003092 8 0 255 0
0.16927 -0.11972 -0.0021635 8 0 255 0
0.21305 -0.11327 0.0059937 8 0 255 0
0.21547 -0.11705 0.009974 8 0 255 0
0.1904 -0.11103 -0.00061717 8 0 255 0
0.1915 -0.086888 -0.00072931 8 0 255 0
0.20294 -0.12467 0.0076997 8 0 255 0
0.19035 -0.094671 -0.0029 8 0 255 0
0.13875 -0.098709 -0.0016136 3 255 0 0
0.15905 -0.092704 -0.0041747 8 0 255 0
0.21362 -0.1181 0.0082095 8 0 255 0
0.18251 -0.11518 -0.00402 8 0 255 0
0.0080261 -0.097962 0.0026688 14 0 0 255
0.18616 -0.12371 0.0018501 8 0 255 0
0.19054 -0.089432 -0.0016096 8 0 255 0
0.14605 -0.10203 -0.0082732 8 0 255 0
0.076634 -0.10627 0.0042306 3 255 0 0
0.082573 -0.10478 0.0045071 3 255 0 0
0.13106 -0.10406 -0.0013865 3 255 0 0
0.22199 -0.099764 0.010731 8 0 255 0
0.19025 -0.1105 -0.003191 8 0 255 0
0.18245 -0.12757 0.00048579 8 0 255 0
0.2153 -0.093105 0.007109 8 0 255 0
0.15828 -0.11507 -0.005992 8 0 255 0
0.19749 -0.11285 0.0020196 8 0 255 0
0.030226 -0.099946 -0.0013331 14 0 0 255
0.2041 -0.098566 0.0032322 8 0 255 0
0.049301 -0.10531 -1.2161e-05 3 255 0 0
0.20122 -0.085307 0.0034856 8 0 255 0
0.20428 -0.12249 0.0055217 8 0 255 0
0.19429 -0.11682 0.0018992 8 0 255 0
0.054237 -0.098072 0.00037764 3 255 0 0
0.14824 -0.10636 -0.0058492 8 0 255 0
0.20329 -0.087769 0.0033601 8 0 255 0
0.18379 -0.11123 -0.0021446 8 0 255 0
0.14899 -0.10954 -0.007106 8 0 255 0
0.1772 -0.12464 -0.0018436 8 0 255 0
0.003912 -0.092341 0.0021398 14 0 0 255
0.17092 -0.11062 -0.0044259 8 0 255 0
0.139 -0.10834 -0.0042889 3 255 0 0
0.21769 -0.10276 0.0075957 8 0 255 0
0.15292 -0.11069 -0.0046283 8 0 255 0
0.16295 -0.088182 -0.0051388 8 0 255 0
0.17202 -0.079641 0.001075 8 0 255 0
0.17115 -0.11515 -0.0058377 8 0 255 0
0.07827 -0.10661 0.0020873 3 255 0 0
0.21713 -0.10519 0.0052862 8 0 255 0
0.12304 -0.097305 0.0010197 3 255 0 0
0.17086 -0.10569 -0.0054719 8 0 255 0
0.14322 -0.10637 -0.0070059 8 0 255 0
0.025653 -0.10701 -0.0014969 14 0 0 255
0.0028929 -0.10041 0.0032483 14 0 0 255
0.20706 -0.099704 0.0017037 8 0 255 0
0.20241 -0.11691 0.0046546 8 0 255 0
0.1964 -0.082058 0.0053596 8 0 255 0
0.006215 -0.10308 0.00040482 14 0 0 255
0.17929 -0.085477 -0.0033029 8 0 255 0
0.17391 -0.11555 -0.0054051 8 0 255 0
0.18069 -0.105 -0.0058755 8 0 255 0
0.039953 -0.093658 -9.307e-05 3 255 0 0
0.22628 -0.10614 0.011244 8 0 255 0
0.17567 -0.12555 0.00088392 8 0 255 0
0.019623 -0.1073 0.0013752 14 0 0 255
0.049582 -0.10112 6.1713e-06 3 255 0 0
0.15392 -0.097434 -0.0078928 8 0 255 0
0.15571 -0.089227 -0.0036562 8 0 255 0
0.10042 -0.10334 0.0048054 3 255 0 0
0.21889 -0.095511 0.0081595 8 0 255 0
0.15527 -0.11573 -0.0054414 8 0 255 0
0.16661 -0.11061 -0.0048136 8 0 255 0
0.075973 -0.10303 0.0041912 3 255 0 0
0.16838 -0.082926 -0.00054836 8 0 255 0
0.19273 -0.08365 0.003306 8 0 255 0
0.078553 -0.103 0.0043171 3 255 0 0
0.16766 -0.11321 -0.0041806 8 0 255 0
0.11344 -0.099638 0.0018705 3 255 0 0
0.16299 -0.11646 -0.0058116 8 0 255 0
0.15309 -0.11484 -0.0039312 8 0 255 0
0.041204 -0.093824 0.0018101 3 255 0 0
0.15125 -0.10585 -0.008769 8 0 255 0
0.19738 -0.12689 0.0054166 8 0 255 0
0.20485 -0.090141 0.0054522 8 0 255 0
0.035605 -0.095798 -0.0010366 14 0 0 255
0.1845 -0.12899 0.0018685 8 0 255 0
0.17201 -0.12424 -0.0024679 8 0 255 0
0.18401 -0.11628 -0.00099218 8 0 255 0
0.17337 -0.114 -0.0034089 8 0 255 0
0.082183 -0.099474 0.0022715 3 255 0 0
0.13533 -0.10851 -0.00034601 3 255 0 0
-0.0053385 -0.10499 0.0026762 14 0 0 255
0.022069 -0.11237 0.0011056 14 0 0 255
0.14706 -0.10949 -0.0045871 8 0 255 0
0.144 -0.10437 -0.0075019 8 0 255 0
0.21553 -0.099924 0.0072789 8 0 255 0
0.030553 -0.093248 -0.00076469 14 0 0 255
0.16158 -0.10949 -0.0054033 8 0 255 0
0.018663 -0.10661 0.0014824 14 0 0 255
0.033716 -0.11302 0.0011258 14 0 0 255
0.07213 -0.095065 0.0017212 3 255 0 0
0.19046 -0.10029 -0.00063723 8 0 255 0
0.18212 -0.11244 -0.0023689 8 0 255 0
0.19161 -0.12174 0.0025045 8 0 255 0
0.16274 -0.12037 -0.0017067 8 0 255 0
0.18186 -0.091328 -0.0018127 8 0 255 0
0.19267 -0.098398 -0.0025501 8 0 255 0
0.1995 -0.080662 0.0048533 8 0 255 0
0.17969 -0.10669 -0.0036872 8 0 255 0
0.059906 -0.10245 0.0031616 3 255 0 0
0.17871 -0.095082 -0.0057179 8 0 255 0
0.21435 -0.091938 0.0094319 8 0 255 0
0.18098 -0.082727 0.0006229 8 0 255 0
0.021734 -0.094153 -0.0013487 14 0 0 255
0.16772 -0.10279 -0.0061396 8 0 255 0
0.066613 -0.105 0.0036233 3 255 0 0
0.087387 -0.095726 0.0040901 3 255 0 0
0.20857 -0.091265 0.0067819 8 0 255 0
0.17772 -0.091465 -0.0025975 8 0 255 0
0.061162 -0.1118 0.0013854 3 255 0 0
0.1664 -0.087601 -0.0025819 8 0 255 0
0.17954 -0.094294 -0.0029717 8 0 255 0
0.19621 -0.10985 0.00092647 8 0 255 0
0.037539 -0.10352 0.0015796 3 255 0 0
0.17406 -0.07929 0.0013962 8 0 255 0
0.18924 -0.085192 -0.00095449 8 0 255 0
0.17799 -0.093586 -0.0030567 8 0 255 0
0.025369 -0.1086 -0.0015042 14 0 0 255
0.17512 -0.11676 -0.0049587 8 0 255 0
0.19603 -0.11887 0.00052419 8 0 255 0
0.12669 -0.10467 0.0024047 3 255 0 0
0.14861 -0.10299 -0.0086916 8 0 255 0
0.15747 -0.10862 -0.0082722 8 0 255 0
0.17315 -0.097132 -0.0069403 8 0 255 0
0.014692 -0.10622 -0.00054463 14 0 0 255
0.032311 -0.10234 0.0012694 3 255 0 0
0.11143 -0.10095 0.0020228 3 255 0 0
0.087184 -0.11005 0.0024828 3 255 0 0
0.064805 -0.09696 0.0034947 3 255 0 0
0.21609 -0.091556 0.010468 8 0 255 0
0.053479 -0.098145 0.0026941 3 255 0 0
0.18302 -0.083883 -0.001934 8 0 255 0
0.20794 -0.10183 0.0016044 8 0 255 0
0.14212 -0.098172 -0.0060242 8 0 255 0
0.0016741 -0.11212 0.0033976 14 0 0 255
0.058504 -0.10605 0.00072797 3 255 0 0
0.11336 -0.10578 0.0018831 3 255 0 0
0.16285 -0.11285 -0.0046556 8 0 255 0
0.16959 -0.091338 -0.0036315 8 0 255 0
0.19269 -0.099244 -0.00012955 8 0 255 0
0.19818 -0.089551 0.003114 8 0 255 0
0.18602 -0.095303 -0.0042428 8 0 255 0
0.0036033 -0.11145 0.00318 14 0 0 255
0.036119 -0.10847 -0.00098889 3 255 0 0
0.17339 -0.095215 -0.0040585 8 0 255 0
0.15162 -0.11346 -0.0036129 8 0 255 0
0.19306 -0.082237 0.0016947 8 0 255 0
0.077415 -0.10518 0.0042661 3 255 0 0
0.072857 -0.10322 0.0017722 3 255 0 0
0.084253 -0.1045 0.0045731 3 255 0 0
0.088036 -0.10374 0.0046912 3 255 0 0
0.17908 -0.10483 -0.00564 8 0 255 0
0.13351 -0.1007 0.00056348 3 255 0 0
0.026989 -0.097556 -0.0014645 14 0 0 255
0.057413 -0.11183 0.00064628 3 255 0 0
0.11962 -0.10921 0.0029175 3 255 0 0
0.044573 -0.10137 -0.00038801 3 255 0 0
0.2221 -0.10768 0.0087948 8 0 255 0
0.15627 -0.094197 -0.0069346 8 0 255 0
0.029139 -0.093183 0.00010724 14 0 0 255
0.19205 -0.096117 -0.00027918 8 0 255 0
0.21286 -0.10975 0.0045227 8 0 255 0
0.21237 -0.11281 0.0078315 8 0 255 0
0.21114 -0.1106 0.0064133 8 0 255 0
0.027687 -0.11312 0.0010536 14 0 0 255
0.18717 -0.093042 -0.00098874 8 0 255 0
0.22105 -0.095108 0.0094737 8 0 255 0
0.19162 -0.10405 -0.00097196 8 0 255 0
0.075144 -0.10861 0.0041483 3 255 0 0
0.012275 -0.10666 -0.00027247 14 0 0 255
0.06458 -0.10784 0.0034907 3 255 0 0
0.087926 -0.10622 0.0046903 3 255 0 0
0.18203 -0.08708 -0.0031471 8 0 255 0
0.17942 -0.1004 -0.0055659 8 0 255 0
0.15476 -0.099184 -0.0061732 8 0 255 0
0.078409 -0.10504 0.0020935 3 255 0 0
0.036198 -0.10013 0.0014881 3 255 0 0
0.044146 -0.093836 0.0014844 3 255 0 0
0.048687 -0.096679 0.002342 3 255 0 0
0.19384 -0.1108 -0.002018 8 0 255 0
0.015714 -0.096109 0.0018028 14 0 0 255
0.16633 -0.12317 -0.00061083 8 0 255 0
0.15988 -0.09382 -0.0071566 8 0 255 0
0.21547 -0.1134 0.007294 8 0 255 0
-0.0047455 -0.099702 0.0016331 14 0 0 255
0.15325 -0.10386 -0.009422 8 0 255 0
0.19812 -0.11304 -0.00013272 8 0 255 0
0.17476 -0.091617 -0.0055025 8 0 255 0
0.034461 -0.10021 -0.0011072 3 255 0 0
0.20934 -0.10999 0.0032372 8 0 255 0
0.19572 -0.11248 -0.0010315 8 0 255 0
0.014178 -0.097417 0.0019768 14 0 0 255
0.16606 -0.098095 -0.0077846 8 0 255 0
0.18598 -0.081051 0.0025391 8 0 255 0
0.13553 -0.10052 -0.00018183 3 255 0 0
0.072689 -0.10923 0.0040055 3 255 0 0
0.18578 -0.07734 0.0038636 8 0 255 0
0.027373 -0.10333 0.0010311 14 0 0 255
0.046776 -0.10518 0.0022142 3 255 0 0
0.032726 -0.11306 -0.001049 14 0 0 255
0.025358 -0.10349 -0.0015098 14 0 0 255
0.21794 -0.11153 0.010294 8 0 255 0
0.088337 -0.099786 0.0046966 3 255 0 0
0.011922 -0.09978 0.0022328 14 0 0 255
0.037419 -0.11285 6.3641e-05 3 255 0 0
0.17755 -0.094577 -0.0057883 8 0 255 0
0.039026 -0.10965 0.0016833 3 255 0 0
0.13415 -0.10751 0.00033568 3 255 0 0
0.20143 -0.097135 0.0001771 8 0 255 0
-0.0051958 -0.10032 0.002576 14 0 0 255
0.19551 -0.082633 0.0047726 8 0 255 0
0.062263 -0.11034 0.0033383 3 255 0 0
0.059527 -0.11187 0.0015019 3 255 0 0
0.078522 -0.097043 0.0020917 3 255 0 0
0.15415 -0.090535 -0.004603 8 0 255 0
0.15727 -0.11846 -0.0043659 8 0 255 0
0.034141 -0.10824 -0.001116 14 0 0 255
0.17984 -0.077561 0.0025122 8 0 255 0
0.057911 -0.095883 0.0030122 3 255 0 0
0.20302 -0.085361 0.0042513 8 0 255 0
0.19251 -0.12145 0.00029158 8 0 255 0
0.18884 -0.092435 -0.0028158 8 0 255 0
0.18021 -0.096072 -0.0032843 8 0 255 0
0.061382 -0.10944 0.0032743 3 255 0 0
0.012987 -0.11007 0.0021239 14 0 0 255
0.19672 -0.10613 0.00028915 8 0 255 0
0.053464 -0.099858 0.00031746 3 255 0 0
0.11105 -0.10758 0.0044279 3 255 0 0
0.16208 -0.10664 -0.0083654 8 0 255 0
0.037979 -0.10198 -0.00086936 3 255 0 0
0.023117 -0.10166 0.00097665 14 0 0 255
0.18654 -0.12256 -0.0010477 8 0 255 0
0.038419 -0.11267 0.0016466 3 255 0 0
0.21078 -0.094492 0.0066177 8 0 255 0
0.22376 -0.098704 0.012124 8 0 255 0
0.1713 -0.11958 -0.004664 8 0 255 0
0.043913 -0.1076 0.0020126 3 255 0 0
0.13075 -0.097743 -0.0012867 3 255 0 0
0.0012793 -0.099855 0.003429 14 0 0 255
0.19273 -0.1165 0.001364 8 0 255 0
0.15679 -0.099201 -0.0085921 8 0 255 0
0.0064351 -0.094452 0.0028439 14 0 0 255
0.21324 -0.11326 0.0084511 8 0 255 0
0.17726 -0.10254 -0.0066585 8 0 255 0
0.089307 -0.11056 0.0029454 3 255 0 0
0.1756 -0.08723 -0.0043572 8 0 255 0
0.19005 -0.086207 -0.00098734 8 0 255 0
0.20473 -0.11379 0.0023283 8 0 255 0
0.076918 -0.10375 0.0020086 3 255 0 0
-0.00011475 -0.10106 0.0011141 14 0 0 255
0.16281 -0.11157 -0.0049116 8 0 255 0
0.16223 -0.092102 -0.0066844 8 0 255 0
0.2 -0.10847 -0.00046457 8 0 255 0
0.050228 -0.095825 0.0024539 3 255 0 0
0.18021 -0.080397 0.0016365 8 0 255 0
0.21571 -0.097132 0.0058442 8 0 255 0
0.17061 -0.093141 -0.0039181 8 0 255 0
0.20892 -0.11609 0.0050239 8 0 255 0
0.22011 -0.098843 0.0099417 8 0 255 0
0.011784 -0.10898 -0.00021489 14 0 0 255
0.20651 -0.096307 0.0045735 8 0 255 0
0.18723 -0.11779 -0.0022653 8 0 255 0
0.072772 -0.096247 0.0017593 3 255 0 0
0.21095 -0.12026 0.010077 8 0 255 0
0.17959 -0.091065 -0.0046076 8 0 255 0
-0.0039226 -0.10235 0.0040163 14 0 0 255
0.058078 -0.11161 0.00304 3 255 0 0
0.066539 -0.10892 0.0013474 3 255 0 0
0.1862 -0.10287 -0.0046234 8 0 255 0
0.12958 -0.10682 0.0017115 3 255 0 0
0.03583 -0.10999 -0.0010069 3 255 0 0
0.19408 -0.10354 -0.00041284 8 0 255 0
0.023543 -0.11258 -0.0015327 14 0 0 255
0.21493 -0.10132 0.0067859 8 0 255 0
0.18421 -0.091513 -0.003741 8 0 255 0
0.22237 -0.10878 0.011665 8 0 255 0
0.21905 -0.11242 0.011221 8 0 255 0
0.14967 -0.10399 -0.0089061 8 0 255 0
0.15582 -0.097361 -0.0056104 8 0 255 0
0.037452 -0.11005 0.0015805 3 255 0 0
0.13948 -0.10216 -0.0047627 3 255 0 0
0.092408 -0.10291 0.0025811 3 255 0 0
0.18009 -0.12034 -0.0032414 8 0 255 0
0.17196 -0.096998 -0.0070437 8 0 255 0
0.17994 -0.10995 -0.0058162 8 0 255 0
0.13699 -0.098822 -0.0036022 3 255 0 0
0.0055212 -0.10862 0.00048862 14 0 0 255
0.10348 -0.10156 0.0024753 3 255 0 0
0.049246 -0.10818 0.0023945 3 255 0 0
0.17201 -0.10095 -0.0054333 8 0 255 0
0.17839 -0.10348 -0.0033822 8 0 255 0
0.095277 -0.10716 0.0048268 3 255 0 0
0.19495 -0.12459 0.0050328 8 0 255 0
0.2046 -0.10556 0.00059082 8 0 255 0
0.21301 -0.10807 0.006628 8 0 255 0
0.18895 -0.093244 -0.00056998 8 0 255 0
0.2247 -0.10111 0.0099064 8 0 255 0
0.14871 -0.10892 -0.0048556 8 0 255 0
0.17143 -0.10205 -0.0079872 8 0 255 0
0.16961 -0.10772 -0.0051594 8 0 255 0
0.17748 -0.088016 -0.0042361 8 0 255 0
0.21131 -0.091871 0.0079246 8 0 255 0
-0.0023045 -0.095372 0.0028743 14 0 0 255
0.17649 -0.11488 -0.0052012 8 0 255 0
0.1998 -0.092575 0.00058345 8 0 255 0
0.16771 -0.11199 -0.0068753 8 0 255 0
0.16032 -0.11633 -0.0032105 8 0 255 0
0.099256 -0.098828 0.0048155 3 255 0 0
0.17591 -0.1002 -0.006365 8 0 255 0
0.22295 -0.11092 0.012774 8 0 255 0
0.0010485 -0.10478 0.00098727 14 0 0 255
0.1844 -0.089265 -0.00073382 8 0 255 0
0.06631 -0.10543 0.0013264 3 255 0 0
0.15176 -0.11057 -0.0070183 8 0 255 0
0.16373 -0.10312 -0.0089055 8 0 255 0
0.099704 -0.10349 0.0025833 3 255 0 0
0.1904 -0.08686 0.0013582 8 0 255 0
0.20327 -0.096062 0.0010414 8 0 255 0
0.066485 -0.10808 0.0036179 3 255 0 0
0.06871 -0.10223 0.0014895 3 255 0 0
0.1813 -0.1147 -0.0043955 8 0 255 0
0.15439 -0.10348 -0.0094203 8 0 255 0
0.18563 -0.09918 -0.001739 8 0 255 0
0.095717 -0.10183 0.002604 3 255 0 0
0.19627 -0.10267 -0.0023298 8 0 255 0
0.15438 -0.1068 -0.0087401 8 0 255 0
0.18791 -0.084299 -0.00093557 8 0 255 0
0.20869 -0.10066 0.0021152 8 0 255 0
0.19525 -0.11634 -0.00030179 8 0 255 0
0.20932 -0.10683 0.0049759 8 0 255 0
0.093897 -0.097 0.0026044 3 255 0 0
0.035513 -0.10478 -0.0010337 3 255 0 0
0.2075 -0.093721 0.0030664 8 0 255 0
0.20346 -0.12326 0.0054665 8 0 255 0
0.18283 -0.11879 -0.00063645 8 0 255 0
0.18882 -0.11537 -0.0024404 8 0 255 0
0.19671 -0.11206 0.0015917 8 0 255 0
0.17278 -0.079104 0.0003317 8 0 255 0
0.13146 -0.10142 0.0012055 3 255 0 0
0.1698 -0.084557 -0.0012767 8 0 255 0
0.20111 -0.09009 0.0015699 8 0 255 0
0.17951 -0.12431 0.0007723 8 0 255 0
-0.0041886 -0.10361 0.0040475 14 0 0 255
0.16023 -0.11611 -0.0057625 8 0 255 0
0.11094 -0.096763 0.0034089 3 255 0 0
0.19221 -0.11328 -0.0019574 8 0 255 0
0.16339 -0.11734 -0.0030146 8 0 255 0
0.18058 -0.10919 -0.0034639 8 0 255 0
0.14205 -0.10349 -0.0062742 8 0 255 0
0.045979 -0.10755 0.0021598 3 255 0 0
0.20021 -0.1257 0.0075908 8 0 255 0
0.22323 -0.10092 0.0089481 8 0 255 0
0.22267 -0.10536 0.010902 8 0 255 0
-0.0013556 -0.1007 0.0012532 14 0 0 255
0.1205 -0.10618 0.0034689 3 255 0 0
0.18959 -0.10492 -0.0038481 8 0 255 0
0.16165 -0.086212 -0.0042453 8 0 255 0
0.20149 -0.11769 0.0021853 8 0 255 0
0.19516 -0.12619 0.0058633 8 0 255 0
0.033853 -0.11301 -6.8316e-05 14 0 0 255
0.17015 -0.10224 -0.007676 8 0 255 0
0.14086 -0.10421 -0.0026832 3 255 0 0
0.17497 -0.1047 -0.004162 8 0 255 0
0.026085 -0.095904 0.00097201 14 0 0 255
0.099938 -0.097866 0.0025762 3 255 0 0
0.0016603 -0.11248 0.0009266 14 0 0 255
0.18573 -0.12858 0.0017324 8 0 255 0
0.22422 -0.098768 0.010039 8 0 255 0
0.20767 -0.10181 0.0038974 8 0 255 0
0.13025 -0.10573 -0.001145 3 255 0 0
0.006047 -0.10584 0.0028995 14 0 0 255
0.027553 -0.10319 -0.0014409 14 0 0 255
0.064105 -0.11167 0.0025879 3 255 0 0
0.13514 -0.10316 -3.5336e-05 3 255 0 0
0.051117 -0.094141 0.0018908 3 255 0 0
0.17944 -0.11876 -0.0013353 8 0 255 0
0.18528 -0.084358 0.00075995 8 0 255 0
0.12815 -0.10523 0.0020872 3 255 0 0
0.13455 -0.099416 0.00017788 3 255 0 0
0.18962 -0.11464 1.1391e-05 8 0 255 0
0.18448 -0.11378 -0.0015001 8 0 255 0
0.037037 -0.10687 -0.00092828 3 255 0 0
0.21747 -0.10393 0.0075691 8 0 255 0
0.053204 -0.11119 0.0026872 3 255 0 0
0.048483 -0.10913 0.0023399 3 255 0 0
0.033436 -0.094843 0.0013242 14 0 0 255
0.1645 -0.10735 -0.0056236 8 0 255 0
0.15978 -0.097413 -0.0056344 8 0 255 0
0.19019 -0.10914 -0.00069085 8 0 255 0
0.1717 -0.12289 -0.0031078 8 0 255 0
0.10472 -0.097066 0.0047183 3 255 0 0
0.082376 -0.10327 0.0022831 3 255 0 0
0.15187 -0.10308 -0.0094808 8 0 255 0
0.17934 -0.087805 -0.0038603 8 0 255 0
0.18239 -0.086058 -0.0028165 8 0 255 0
0.032195 -0.096659 -0.0012315 14 0 0 255
0.12921 -0.097686 -0.00089004 3 255 0 0
0.060647 -0.10821 0.00089906 3 255 0 0
0.00869 -0.096374 0.0025925 14 0 0 255
0.0040155 -0.10184 0.00065073 14 0 0 255
0.18127 -0.10855 -0.0057398 8 0 255 0
0.13543 -0.10784 -0.0028897 3 255 0 0
0.039246 -0.11026 -0.00077503 3 255 0 0
0.20952 -0.096768 0.0055926 8 0 255 0
0.19969 -0.12038 0.0025959 8 0 255 0
0.18261 -0.082252 -0.0012302 8 0 255 0
0.19584 -0.10774 0.00059499 8 0 255 0
0.06589 -0.11159 0.0035818 3 255 0 0
0.044073 -0.11256 0.00097652 3 255 0 0
0.15863 -0.11144 -0.0074451 8 0 255 0
0.21291 -0.089685 0.0072355 8 0 255 0
0.17558 -0.095638 -0.0038841 8 0 255 0
