ply
format ascii 1.0
comment author Paulo Abelha (p.abelha at abdn ac uk)
element vertex 1330
property float x
property float y
property float z
property int segm
property uchar red
property uchar green
property uchar blue
end_header
0.2099 0.046952 0.11359 24 0 0 255
0.02132 0.03694 0.11248 2 255 0 0
-0.0030689 0.045395 0.11259 2 255 0 0
0.17901 0.053223 0.11456 24 0 0 255
0.034644 0.042357 0.11475 2 255 0 0
0.19567 0.033201 0.11275 24 0 0 255
0.09233 0.035022 0.11319 23 0 255 0
0.17121 0.055708 0.11281 24 0 0 255
0.00073033 0.034261 0.11474 2 255 0 0
0.087974 0.045409 0.11381 23 0 255 0
0.1683 0.052321 0.11458 24 0 0 255
0.080657 0.040541 0.11261 2 255 0 0
0.20688 0.026369 0.11282 24 0 0 255
0.12942 0.041635 0.11404 23 0 255 0
0.19233 0.033896 0.11276 24 0 0 255
0.12335 0.044281 0.11366 23 0 255 0
0.20826 0.041877 0.11448 24 0 0 255
0.20532 0.027596 0.11273 24 0 0 255
0.12903 0.039998 0.11409 23 0 255 0
0.045045 0.041754 0.1125 2 255 0 0
0.19028 0.053042 0.11453 24 0 0 255
0.032879 0.038276 0.11245 2 255 0 0
0.1965 0.027854 0.11275 24 0 0 255
0.0012516 0.048492 0.11403 2 255 0 0
0.18 0.031745 0.11278 24 0 0 255
0.13656 0.043317 0.11377 23 0 255 0
0.13859 0.04238 0.11294 23 0 255 0
0.14557 0.037053 0.11315 23 0 255 0
0.19131 0.031468 0.11452 24 0 0 255
0.17754 0.045838 0.11279 24 0 0 255
0.047126 0.0413 0.1125 2 255 0 0
0.036399 0.043165 0.11468 2 255 0 0
0.11529 0.04122 0.11417 23 0 255 0
0.047505 0.034856 0.11282 2 255 0 0
0.072114 0.044132 0.11428 2 255 0 0
0.14917 0.039656 0.11287 24 0 0 255
0.0071578 0.04532 0.11263 2 255 0 0
0.11274 0.043183 0.1129 23 0 255 0
0.036689 0.045654 0.11439 2 255 0 0
0.13771 0.043075 0.11303 23 0 255 0
0.039036 0.032996 0.11399 2 255 0 0
0.017504 0.045896 0.11455 2 255 0 0
0.05794 0.033851 0.11398 2 255 0 0
0.15716 0.033449 0.11349 24 0 0 255
0.05873 0.037544 0.1126 2 255 0 0
0.18855 0.048331 0.11454 24 0 0 255
0.11311 0.039836 0.11421 23 0 255 0
0.083154 0.041923 0.11439 2 255 0 0
0.1308 0.040954 0.11406 23 0 255 0
0.05312 0.039122 0.11465 2 255 0 0
0.20134 0.051581 0.11354 24 0 0 255
0.0041557 0.033588 0.11461 2 255 0 0
0.18093 0.023987 0.11408 24 0 0 255
0.10066 0.039747 0.1143 23 0 255 0
0.16648 0.04801 0.11281 24 0 0 255
0.022469 0.033819 0.11445 2 255 0 0
0.054042 0.044303 0.11442 2 255 0 0
0.18828 0.052659 0.11454 24 0 0 255
0.18022 0.027742 0.11278 24 0 0 255
-0.0033596 0.038476 0.11508 2 255 0 0
0.20817 0.02729 0.11449 24 0 0 255
0.069416 0.041294 0.11452 2 255 0 0
0.17694 0.050384 0.1128 24 0 0 255
0.20718 0.046758 0.1142 24 0 0 255
0.12253 0.036454 0.11382 23 0 255 0
0.11385 0.036506 0.113 23 0 255 0
0.19243 0.042562 0.11276 24 0 0 255
0.21872 0.052137 0.11271 24 0 0 255
0.077724 0.040481 0.11448 2 255 0 0
0.0042284 0.034102 0.11267 2 255 0 0
0.21588 0.028215 0.11271 24 0 0 255
-0.00062346 0.04314 0.11498 2 255 0 0
0.20183 0.046868 0.11274 24 0 0 255
0.17805 0.036334 0.11455 24 0 0 255
0.063489 0.03691 0.11266 2 255 0 0
0.21482 0.052432 0.11449 24 0 0 255
0.17289 0.030429 0.11279 24 0 0 255
0.025821 0.044635 0.11264 2 255 0 0
0.18036 0.036609 0.11455 24 0 0 255
0.17774 0.030567 0.11455 24 0 0 255
0.20866 0.053194 0.1145 24 0 0 255
-0.00034672 0.039755 0.1123 2 255 0 0
0.16564 0.047373 0.11282 24 0 0 255
0.0098617 0.04587 0.11463 2 255 0 0
0.158 0.041643 0.11459 24 0 0 255
0.20266 0.053108 0.11451 24 0 0 255
0.16743 0.031566 0.11457 24 0 0 255
0.098571 0.041942 0.11273 23 0 255 0
-0.0075901 0.042043 0.1151 2 255 0 0
0.16795 0.051159 0.11458 24 0 0 255
0.16876 0.03042 0.11457 24 0 0 255
0.21463 0.04869 0.11419 24 0 0 255
0.016699 0.042388 0.11489 2 255 0 0
0.086701 0.0429 0.11274 23 0 255 0
0.20465 0.038048 0.11325 24 0 0 255
0.17098 0.052542 0.11457 24 0 0 255
0.20433 0.054013 0.11447 24 0 0 255
0.07992 0.034762 0.11394 23 0 255 0
0.07099 0.040087 0.11454 2 255 0 0
0.037398 0.040722 0.11245 2 255 0 0
0.13443 0.040128 0.11405 23 0 255 0
0.17152 0.0432 0.1128 24 0 0 255
0.18884 0.051484 0.11454 24 0 0 255
0.20274 0.031358 0.1145 24 0 0 255
0.019559 0.039203 0.11238 2 255 0 0
0.040764 0.043932 0.11263 2 255 0 0
0.039141 0.039036 0.11476 2 255 0 0
0.04776 0.035868 0.11449 2 255 0 0
0.046009 0.039919 0.11473 2 255 0 0
0.12653 0.042047 0.11404 23 0 255 0
0.067067 0.042969 0.11445 2 255 0 0
0.17017 0.026567 0.1128 24 0 0 255
0.02473 0.038841 0.11487 2 255 0 0
0.10958 0.036633 0.114 23 0 255 0
0.11867 0.037051 0.11294 23 0 255 0
0.16347 0.037224 0.11282 24 0 0 255
0.023923 0.037917 0.11243 2 255 0 0
0.14822 0.042263 0.11383 24 0 0 255
0.10612 0.038773 0.11423 23 0 255 0
0.14172 0.040615 0.11284 24 0 0 255
0.17155 0.023365 0.11279 24 0 0 255
0.208 0.046817 0.11444 24 0 0 255
0.16816 0.04293 0.11281 24 0 0 255
0.18748 0.051517 0.11277 24 0 0 255
0.089063 0.041945 0.11434 23 0 255 0
0.045779 0.038813 0.11249 2 255 0 0
0.16564 0.044319 0.11458 24 0 0 255
0.19283 0.043504 0.11423 24 0 0 255
0.20707 0.052531 0.11274 24 0 0 255
0.011928 0.044813 0.11474 2 255 0 0
0.11066 0.037989 0.1128 23 0 255 0
0.17091 0.023987 0.1128 24 0 0 255
0.052276 0.045084 0.11284 2 255 0 0
0.17094 0.053719 0.11457 24 0 0 255
0.011139 0.03245 0.11427 2 255 0 0
0.19457 0.052689 0.11453 24 0 0 255
0.03708 0.046873 0.11408 2 255 0 0
0.096591 0.040053 0.11434 23 0 255 0
0.051515 0.043871 0.11268 2 255 0 0
-0.0061323 0.048549 0.11414 2 255 0 0
0.19072 0.04251 0.11276 24 0 0 255
0.068545 0.039882 0.11455 2 255 0 0
0.20202 0.041533 0.11274 24 0 0 255
0.013492 0.038704 0.11237 2 255 0 0
0.054788 0.036889 0.11453 2 255 0 0
0.1614 0.044847 0.11459 24 0 0 255
0.1588 0.048736 0.11459 24 0 0 255
0.16926 0.040239 0.11457 24 0 0 255
0.13591 0.039355 0.11402 23 0 255 0
0.039607 0.032804 0.11332 2 255 0 0
0.0074615 0.037731 0.11498 2 255 0 0
0.049654 0.038281 0.11466 2 255 0 0
0.071423 0.036951 0.11269 2 255 0 0
0.17644 0.044299 0.11279 24 0 0 255
0.079459 0.041921 0.11442 2 255 0 0
0.026486 0.04039 0.11487 2 255 0 0
0.19312 0.039224 0.11452 24 0 0 255
0.086031 0.037099 0.11275 23 0 255 0
0.17247 0.054166 0.11281 24 0 0 255
0.015311 0.033285 0.11442 2 255 0 0
0.21865 0.048421 0.11377 24 0 0 255
0.21641 0.027362 0.11271 24 0 0 255
0.19721 0.048696 0.11275 24 0 0 255
0.13313 0.039493 0.11281 23 0 255 0
0.048538 0.039474 0.11249 2 255 0 0
0.21668 0.052924 0.11445 24 0 0 255
0.21545 0.040818 0.11448 24 0 0 255
0.17 0.029997 0.11456 24 0 0 255
0.098507 0.037699 0.11276 23 0 255 0
0.0041354 0.036943 0.1124 2 255 0 0
0.20094 0.053266 0.11275 24 0 0 255
0.0041437 0.048188 0.11411 2 255 0 0
0.16899 0.02367 0.11298 24 0 0 255
0.089434 0.035529 0.11401 23 0 255 0
0.10626 0.037921 0.11418 23 0 255 0
0.2053 0.039648 0.11274 24 0 0 255
0.18362 0.031271 0.11454 24 0 0 255
0.21008 0.046972 0.11273 24 0 0 255
0.15732 0.033065 0.11432 24 0 0 255
0.18186 0.048379 0.11455 24 0 0 255
0.18935 0.030969 0.11276 24 0 0 255
0.15821 0.034169 0.11283 24 0 0 255
0.16524 0.053854 0.11458 24 0 0 255
0.17891 0.040207 0.11279 24 0 0 255
0.18602 0.039584 0.11277 24 0 0 255
0.057131 0.036026 0.11273 2 255 0 0
0.007383 0.041234 0.11235 2 255 0 0
0.22161 0.027767 0.1127 24 0 0 255
0.16173 0.034077 0.11282 24 0 0 255
0.21045 0.040122 0.11449 24 0 0 255
0.080381 0.036964 0.11274 23 0 255 0
0.11153 0.039028 0.1142 23 0 255 0
0.021863 0.044264 0.11258 2 255 0 0
0.043386 0.0362 0.11457 2 255 0 0
0.16353 0.025887 0.11415 24 0 0 255
0.17436 0.045769 0.11456 24 0 0 255
0.17937 0.030999 0.11278 24 0 0 255
0.098097 0.041053 0.11431 23 0 255 0
0.18494 0.051651 0.11454 24 0 0 255
0.18919 0.040593 0.11277 24 0 0 255
0.16865 0.03883 0.11457 24 0 0 255
0.15408 0.041197 0.11387 24 0 0 255
0.16796 0.036335 0.11457 24 0 0 255
0.065084 0.039834 0.11458 2 255 0 0
0.19562 0.05312 0.11452 24 0 0 255
0.0065646 0.041552 0.11235 2 255 0 0
0.011236 0.032869 0.11295 2 255 0 0
0.052961 0.042494 0.11258 2 255 0 0
0.018284 0.035832 0.11476 2 255 0 0
0.18759 0.027435 0.11276 24 0 0 255
0.046444 0.041418 0.1147 2 255 0 0
0.073798 0.036216 0.11279 2 255 0 0
0.015965 0.045222 0.11267 2 255 0 0
0.030123 0.04607 0.11438 2 255 0 0
0.14839 0.038174 0.11383 24 0 0 255
0.16838 0.050311 0.11281 24 0 0 255
0.20017 0.042731 0.11309 24 0 0 255
0.022215 0.032706 0.11417 2 255 0 0
0.095643 0.045285 0.11373 23 0 255 0
0.2003 0.052425 0.11451 24 0 0 255
0.16082 0.030904 0.11458 24 0 0 255
0.034793 0.043496 0.11257 2 255 0 0
0.16941 0.027725 0.1128 24 0 0 255
0.17269 0.052626 0.1128 24 0 0 255
0.13531 0.041022 0.11283 23 0 255 0
0.06045 0.034131 0.11404 2 255 0 0
0.037967 0.035418 0.11269 2 255 0 0
0.053054 0.04228 0.11461 2 255 0 0
0.060667 0.046419 0.11328 2 255 0 0
0.15974 0.030551 0.11282 24 0 0 255
0.082998 0.039191 0.11263 23 0 255 0
0.1551 0.040656 0.11388 24 0 0 255
-0.00061031 0.035107 0.11252 2 255 0 0
0.0068181 0.040069 0.11503 2 255 0 0
0.17814 0.027653 0.11455 24 0 0 255
0.010665 0.035977 0.11484 2 255 0 0
0.17446 0.05341 0.11457 24 0 0 255
0.16431 0.048289 0.11282 24 0 0 255
0.013037 0.037713 0.11239 2 255 0 0
0.065312 0.046487 0.11349 2 255 0 0
0.12843 0.038572 0.11284 23 0 255 0
0.16964 0.047704 0.11281 24 0 0 255
0.17295 0.043908 0.1128 24 0 0 255
0.0069951 0.046169 0.11274 2 255 0 0
0.20671 0.047937 0.11274 24 0 0 255
0.17296 0.028233 0.11279 24 0 0 255
0.21122 0.028357 0.11444 24 0 0 255
0.21765 0.0478 0.11271 24 0 0 255
0.045524 0.032838 0.11354 2 255 0 0
0.093686 0.042328 0.11428 23 0 255 0
0.11874 0.03821 0.11282 23 0 255 0
0.2173 0.039359 0.11376 24 0 0 255
0.026665 0.046853 0.11303 2 255 0 0
0.18368 0.033836 0.11278 24 0 0 255
0.17471 0.038794 0.11456 24 0 0 255
0.20791 0.033536 0.11274 24 0 0 255
0.088124 0.042215 0.11433 23 0 255 0
0.056118 0.046782 0.11348 2 255 0 0
0.18774 0.040947 0.11453 24 0 0 255
0.030012 0.033154 0.11421 2 255 0 0
0.0046334 0.047192 0.11294 2 255 0 0
0.17303 0.05142 0.11457 24 0 0 255
0.17707 0.032347 0.11455 24 0 0 255
0.19666 0.051862 0.11276 24 0 0 255
0.014691 0.035816 0.11252 2 255 0 0
0.19024 0.030643 0.11276 24 0 0 255
0.082851 0.042697 0.11271 2 255 0 0
0.097999 0.042779 0.11278 23 0 255 0
0.014083 0.044356 0.11477 2 255 0 0
0.044203 0.040134 0.11247 2 255 0 0
0.028618 0.035161 0.11459 2 255 0 0
0.10151 0.039595 0.11429 23 0 255 0
0.1969 0.043076 0.113 24 0 0 255
0.025954 0.045683 0.1145 2 255 0 0
0.067286 0.043885 0.11436 2 255 0 0
0.045678 0.043689 0.11457 2 255 0 0
-0.003699 0.041625 0.11232 2 255 0 0
0.039646 0.034892 0.11445 2 255 0 0
0.17218 0.037522 0.11456 24 0 0 255
0.16854 0.035643 0.11281 24 0 0 255
0.078009 0.034993 0.11404 23 0 255 0
0.15738 0.037469 0.11459 24 0 0 255
0.16262 0.035268 0.11458 24 0 0 255
0.18745 0.039692 0.11453 24 0 0 255
0.16005 0.040722 0.11459 24 0 0 255
0.17203 0.031683 0.1128 24 0 0 255
0.19205 0.04087 0.11453 24 0 0 255
0.1607 0.049373 0.11459 24 0 0 255
0.013784 0.036198 0.11249 2 255 0 0
0.12002 0.038462 0.11281 23 0 255 0
0.074733 0.034074 0.11373 2 255 0 0
0.16587 0.03867 0.11458 24 0 0 255
0.10195 0.038257 0.11274 23 0 255 0
0.074496 0.041735 0.11447 2 255 0 0
0.19054 0.030737 0.11452 24 0 0 255
0.17271 0.042954 0.1128 24 0 0 255
0.16117 0.040239 0.11459 24 0 0 255
0.13854 0.03717 0.11378 24 0 0 255
0.17658 0.041008 0.11279 24 0 0 255
0.16459 0.045026 0.11282 24 0 0 255
0.18458 0.029397 0.11407 24 0 0 255
0.17027 0.034804 0.1128 24 0 0 255
-0.0062576 0.044672 0.11249 2 255 0 0
0.025535 0.045936 0.11283 2 255 0 0
0.12483 0.037089 0.11392 23 0 255 0
0.0017458 0.041227 0.11504 2 255 0 0
0.12783 0.043249 0.11388 23 0 255 0
0.17338 0.053086 0.11457 24 0 0 255
-0.007725 0.03319 0.11273 2 255 0 0
-0.0093408 0.030938 0.1134 2 255 0 0
0.074887 0.038942 0.1126 2 255 0 0
0.015039 0.047844 0.11407 2 255 0 0
0.17692 0.037394 0.11455 24 0 0 255
0.21919 0.031894 0.11447 24 0 0 255
0.086792 0.0379 0.11434 23 0 255 0
-0.003919 0.042897 0.11237 2 255 0 0
0.099297 0.03885 0.1127 23 0 255 0
0.14078 0.042345 0.11389 23 0 255 0
0.042909 0.036944 0.11464 2 255 0 0
0.20371 0.031441 0.1145 24 0 0 255
0.18303 0.046168 0.11455 24 0 0 255
0.15886 0.038334 0.11459 24 0 0 255
0.16312 0.033852 0.11458 24 0 0 255
0.025025 0.040613 0.11488 2 255 0 0
0.17098 0.05663 0.11435 24 0 0 255
0.18455 0.027324 0.11453 24 0 0 255
0.0036422 0.037801 0.11235 2 255 0 0
0.20603 0.030956 0.11449 24 0 0 255
0.1684 0.035439 0.11457 24 0 0 255
0.12706 0.042771 0.11293 23 0 255 0
0.16495 0.027304 0.11457 24 0 0 255
0.16591 0.035469 0.11281 24 0 0 255
-0.0083229 0.045917 0.11263 2 255 0 0
0.17325 0.040101 0.11456 24 0 0 255
0.086136 0.038145 0.11268 23 0 255 0
-0.0080441 0.037232 0.11233 2 255 0 0
0.20963 0.033405 0.11377 24 0 0 255
0.033058 0.044294 0.11264 2 255 0 0
0.20346 0.033525 0.1145 24 0 0 255
0.18833 0.035015 0.11374 24 0 0 255
0.019104 0.034436 0.11271 2 255 0 0
0.053765 0.036897 0.11262 2 255 0 0
0.17501 0.055821 0.1128 24 0 0 255
0.18442 0.0334 0.11454 24 0 0 255
0.15513 0.038338 0.11298 24 0 0 255
0.21903 0.052717 0.11396 24 0 0 255
0.12375 0.03916 0.11278 23 0 255 0
0.095493 0.043049 0.1128 23 0 255 0
0.051525 0.044896 0.11438 2 255 0 0
0.1827 0.036541 0.11454 24 0 0 255
0.17251 0.031055 0.11456 24 0 0 255
0.083347 0.036731 0.11426 23 0 255 0
0.030427 0.040715 0.11243 2 255 0 0
0.19081 0.045982 0.11277 24 0 0 255
0.0046664 0.035493 0.11485 2 255 0 0
0.1683 0.030496 0.1128 24 0 0 255
-0.0037153 0.043798 0.11243 2 255 0 0
0.091612 0.042012 0.1127 23 0 255 0
0.16578 0.034546 0.11281 24 0 0 255
0.1805 0.047637 0.11455 24 0 0 255
0.16851 0.056234 0.11458 24 0 0 255
0.096319 0.037476 0.11277 23 0 255 0
0.15926 0.039961 0.11283 24 0 0 255
0.1711 0.031127 0.11456 24 0 0 255
0.043988 0.041216 0.11472 2 255 0 0
0.094567 0.037011 0.11419 23 0 255 0
0.090087 0.038433 0.11268 23 0 255 0
0.16559 0.02528 0.11457 24 0 0 255
0.15914 0.040402 0.11459 24 0 0 255
0.18095 0.045663 0.11455 24 0 0 255
0.10571 0.045115 0.11351 23 0 255 0
0.10036 0.0421 0.11275 23 0 255 0
0.16226 0.038206 0.11282 24 0 0 255
0.18417 0.032135 0.11277 24 0 0 255
0.077132 0.045257 0.11403 2 255 0 0
0.028991 0.036071 0.11469 2 255 0 0
0.17145 0.035454 0.11456 24 0 0 255
0.20416 0.037996 0.11423 24 0 0 255
0.014981 0.033678 0.11281 2 255 0 0
0.01203 0.038388 0.11496 2 255 0 0
0.070555 0.035056 0.11296 2 255 0 0
0.17922 0.02383 0.11452 24 0 0 255
0.18649 0.036163 0.11396 24 0 0 255
-0.0034868 0.046392 0.11272 2 255 0 0
0.058364 0.043959 0.11443 2 255 0 0
0.052043 0.040656 0.11251 2 255 0 0
0.16658 0.042449 0.11458 24 0 0 255
0.11683 0.036298 0.11307 23 0 255 0
0.16663 0.032643 0.11457 24 0 0 255
0.22257 0.052406 0.11439 24 0 0 255
0.20352 0.049433 0.11317 24 0 0 255
0.01885 0.044536 0.11471 2 255 0 0
0.046567 0.03333 0.11398 2 255 0 0
0.20012 0.046255 0.11448 24 0 0 255
0.16564 0.048679 0.11282 24 0 0 255
0.10102 0.036942 0.11285 23 0 255 0
0.16519 0.04704 0.11458 24 0 0 255
0.18457 0.039168 0.11278 24 0 0 255
0.0033506 0.043974 0.11247 2 255 0 0
-0.0057614 0.045385 0.11258 2 255 0 0
-0.00018054 0.045137 0.11481 2 255 0 0
0.18326 0.024202 0.11376 24 0 0 255
0.16437 0.03931 0.11282 24 0 0 255
0.19294 0.047212 0.11276 24 0 0 255
0.021772 0.040915 0.1124 2 255 0 0
0.20783 0.046806 0.11305 24 0 0 255
-0.007188 0.045602 0.11482 2 255 0 0
0.051484 0.043005 0.1126 2 255 0 0
-0.0073008 0.040949 0.11512 2 255 0 0
0.16254 0.040525 0.11458 24 0 0 255
0.058921 0.0434 0.11266 2 255 0 0
0.0086268 0.038144 0.11498 2 255 0 0
0.007884 0.048012 0.11412 2 255 0 0
0.11143 0.036854 0.11402 23 0 255 0
0.1616 0.035207 0.11282 24 0 0 255
0.056254 0.035724 0.1144 2 255 0 0
0.12664 0.041504 0.11281 23 0 255 0
0.16787 0.032386 0.11281 24 0 0 255
0.009265 0.047889 0.11414 2 255 0 0
0.16535 0.03824 0.11281 24 0 0 255
0.18105 0.029121 0.11386 24 0 0 255
0.16771 0.025309 0.1128 24 0 0 255
0.13986 0.042887 0.11382 23 0 255 0
0.0063676 0.044303 0.11251 2 255 0 0
0.16159 0.047242 0.11282 24 0 0 255
0.057369 0.034854 0.11425 2 255 0 0
0.10153 0.04115 0.11428 23 0 255 0
-0.0098461 0.046897 0.11278 2 255 0 0
0.21969 0.039606 0.1141 24 0 0 255
0.20094 0.028618 0.11297 24 0 0 255
0.18165 0.056013 0.11408 24 0 0 255
0.047258 0.047117 0.11353 2 255 0 0
0.066053 0.035041 0.11293 2 255 0 0
0.19127 0.040429 0.11276 24 0 0 255
0.18014 0.056119 0.11279 24 0 0 255
0.14402 0.038915 0.11288 24 0 0 255
0.045572 0.035633 0.11449 2 255 0 0
0.11713 0.035546 0.11345 23 0 255 0
0.0086712 0.031483 0.1138 2 255 0 0
0.056624 0.036813 0.11264 2 255 0 0
0.089525 0.036637 0.1142 23 0 255 0
0.19402 0.033061 0.11452 24 0 0 255
0.18984 0.046448 0.11277 24 0 0 255
0.18689 0.046745 0.11454 24 0 0 255
0.017008 0.047345 0.11422 2 255 0 0
0.038046 0.042182 0.11473 2 255 0 0
0.025452 0.047799 0.11348 2 255 0 0
0.10864 0.036774 0.11403 23 0 255 0
0.027333 0.036456 0.11254 2 255 0 0
0.17094 0.044948 0.11457 24 0 0 255
0.12293 0.040119 0.11276 23 0 255 0
0.0098221 0.035569 0.11481 2 255 0 0
0.026754 0.033835 0.1144 2 255 0 0
0.12965 0.038575 0.11403 23 0 255 0
0.17491 0.023435 0.1141 24 0 0 255
0.031031 0.032681 0.11324 2 255 0 0
0.22187 0.047855 0.11271 24 0 0 255
0.17928 0.032845 0.11455 24 0 0 255
0.045185 0.042872 0.11257 2 255 0 0
0.16083 0.041164 0.11459 24 0 0 255
0.076763 0.043185 0.11436 2 255 0 0
0.082962 0.040557 0.11262 2 255 0 0
0.057101 0.034775 0.11291 2 255 0 0
0.048504 0.033841 0.11304 2 255 0 0
0.18193 0.051058 0.11359 24 0 0 255
0.10224 0.042755 0.11418 23 0 255 0
0.069807 0.034383 0.11397 2 255 0 0
0.058711 0.046362 0.11323 2 255 0 0
0.022485 0.045419 0.11272 2 255 0 0
0.064002 0.036915 0.11446 2 255 0 0
0.1724 0.023228 0.1138 24 0 0 255
0.16477 0.04593 0.11458 24 0 0 255
-0.010172 0.034313 0.11475 2 255 0 0
0.102 0.035605 0.11387 23 0 255 0
0.059658 0.033464 0.11341 2 255 0 0
0.16519 0.053437 0.11282 24 0 0 255
0.17925 0.036526 0.11455 24 0 0 255
0.0049137 0.03299 0.11448 2 255 0 0
0.083678 0.035599 0.11295 23 0 255 0
0.20561 0.048514 0.11274 24 0 0 255
0.079098 0.039873 0.11447 23 0 255 0
0.070245 0.037347 0.11266 2 255 0 0
0.17342 0.040899 0.1128 24 0 0 255
0.17055 0.043472 0.11457 24 0 0 255
0.18831 0.05123 0.11379 24 0 0 255
0.022877 0.044591 0.11262 2 255 0 0
0.15915 0.036939 0.11282 24 0 0 255
0.17992 0.029086 0.11278 24 0 0 255
0.18111 0.052574 0.11279 24 0 0 255
0.16198 0.047139 0.11459 24 0 0 255
0.060391 0.043559 0.11446 2 255 0 0
0.029897 0.040649 0.11484 2 255 0 0
0.083401 0.044474 0.11294 2 255 0 0
0.18997 0.050338 0.11404 24 0 0 255
0.048379 0.041347 0.11251 2 255 0 0
0.088401 0.038791 0.11266 23 0 255 0
0.060587 0.041047 0.1146 2 255 0 0
0.080886 0.037704 0.11269 23 0 255 0
0.17017 0.04004 0.1128 24 0 0 255
0.21541 0.052507 0.11272 24 0 0 255
-0.0083578 0.031634 0.1143 2 255 0 0
0.032605 0.037149 0.11251 2 255 0 0
0.04805 0.036965 0.1146 2 255 0 0
0.20121 0.054108 0.11275 24 0 0 255
0.18085 0.037726 0.11278 24 0 0 255
0.13417 0.039757 0.11281 23 0 255 0
0.17637 0.029093 0.11455 24 0 0 255
0.052333 0.034645 0.1129 2 255 0 0
0.091246 0.039529 0.11265 23 0 255 0
0.024827 0.035511 0.11467 2 255 0 0
0.11036 0.044973 0.11348 23 0 255 0
0.18296 0.029283 0.11342 24 0 0 255
0.012241 0.032657 0.11433 2 255 0 0
0.074962 0.040062 0.11258 2 255 0 0
0.055544 0.037215 0.11261 2 255 0 0
0.091731 0.042106 0.11431 23 0 255 0
0.18455 0.028514 0.11454 24 0 0 255
0.18381 0.055823 0.11331 24 0 0 255
-0.0076418 0.036994 0.11506 2 255 0 0
0.16957 0.056441 0.11359 24 0 0 255
0.1762 0.038166 0.11456 24 0 0 255
0.18791 0.033789 0.11277 24 0 0 255
0.20395 0.0261 0.11374 24 0 0 255
0.0087797 0.038584 0.11236 2 255 0 0
0.15879 0.042412 0.11459 24 0 0 255
0.16795 0.028624 0.11457 24 0 0 255
0.024153 0.032049 0.11354 2 255 0 0
0.0292 0.047635 0.11384 2 255 0 0
0.18209 0.031718 0.11278 24 0 0 255
0.14733 0.041335 0.11289 24 0 0 255
0.21139 0.033125 0.11272 24 0 0 255
0.054333 0.041924 0.11255 2 255 0 0
0.022516 0.035323 0.11466 2 255 0 0
0.09739 0.04346 0.11286 23 0 255 0
-0.0046024 0.032989 0.1128 2 255 0 0
0.051371 0.034602 0.1129 2 255 0 0
0.1368 0.039944 0.11402 23 0 255 0
0.030378 0.039327 0.11483 2 255 0 0
0.047276 0.046203 0.11304 2 255 0 0
0.17169 0.050732 0.11457 24 0 0 255
0.14936 0.03836 0.11384 24 0 0 255
0.041184 0.037726 0.11251 2 255 0 0
0.031405 0.040764 0.11243 2 255 0 0
0.051811 0.038086 0.11464 2 255 0 0
0.18786 0.027741 0.11453 24 0 0 255
0.19906 0.026982 0.11451 24 0 0 255
0.15825 0.038843 0.11283 24 0 0 255
0.071139 0.042656 0.11266 2 255 0 0
0.15428 0.038679 0.11294 24 0 0 255
0.072327 0.041774 0.11261 2 255 0 0
0.18487 0.042801 0.11454 24 0 0 255
0.21105 0.040776 0.11449 24 0 0 255
0.065232 0.037317 0.11264 2 255 0 0
0.19859 0.028677 0.11389 24 0 0 255
0.1361 0.038434 0.11288 23 0 255 0
0.17712 0.050455 0.11456 24 0 0 255
0.17561 0.044105 0.11456 24 0 0 255
0.20642 0.042025 0.1145 24 0 0 255
0.20238 0.037811 0.11429 24 0 0 255
0.12576 0.042773 0.11292 23 0 255 0
0.19418 0.036961 0.11433 24 0 0 255
0.20729 0.033583 0.11336 24 0 0 255
0.21442 0.031723 0.11448 24 0 0 255
0.16811 0.05195 0.11281 24 0 0 255
0.18207 0.033962 0.11278 24 0 0 255
0.014119 0.03322 0.1129 2 255 0 0
0.023681 0.044129 0.11472 2 255 0 0
0.0041596 0.046482 0.11458 2 255 0 0
0.019386 0.043837 0.11478 2 255 0 0
0.095369 0.040454 0.11266 23 0 255 0
0.20459 0.046574 0.11402 24 0 0 255
0.0858 0.042817 0.11273 23 0 255 0
0.20057 0.039119 0.11451 24 0 0 255
0.012824 0.033679 0.11279 2 255 0 0
0.21364 0.03244 0.11272 24 0 0 255
0.095864 0.043927 0.11291 23 0 255 0
0.039902 0.042996 0.11467 2 255 0 0
0.17405 0.050406 0.1128 24 0 0 255
0.16405 0.04126 0.11458 24 0 0 255
0.067512 0.039718 0.11456 2 255 0 0
0.034062 0.041816 0.11246 2 255 0 0
0.020566 0.047052 0.11303 2 255 0 0
0.094504 0.040432 0.11266 23 0 255 0
0.024899 0.04426 0.11469 2 255 0 0
0.17152 0.045275 0.1128 24 0 0 255
0.21276 0.05327 0.11367 24 0 0 255
0.21026 0.051821 0.11386 24 0 0 255
0.22076 0.048281 0.11278 24 0 0 255
0.15231 0.038214 0.1138 24 0 0 255
0.18864 0.027999 0.11276 24 0 0 255
0.043366 0.046219 0.11301 2 255 0 0
0.035153 0.046258 0.11428 2 255 0 0
0.18305 0.042834 0.11454 24 0 0 255
0.10976 0.044454 0.11382 23 0 255 0
0.023375 0.04744 0.11408 2 255 0 0
0.05246 0.0456 0.11423 2 255 0 0
0.20539 0.046948 0.1145 24 0 0 255
0.19996 0.049195 0.11451 24 0 0 255
-0.0069224 0.033455 0.11471 2 255 0 0
0.16339 0.040053 0.11458 24 0 0 255
0.21093 0.02674 0.11361 24 0 0 255
0.22246 0.052251 0.11271 24 0 0 255
0.13592 0.040719 0.11402 23 0 255 0
0.17418 0.054837 0.1128 24 0 0 255
0.19803 0.030355 0.11365 24 0 0 255
0.01485 0.045959 0.11276 2 255 0 0
0.18739 0.028706 0.11277 24 0 0 255
0.18716 0.052343 0.11278 24 0 0 255
0.22015 0.040625 0.11383 24 0 0 255
0.16369 0.026888 0.11281 24 0 0 255
0.04981 0.033826 0.11306 2 255 0 0
0.048622 0.037696 0.11464 2 255 0 0
0.19228 0.050146 0.11453 24 0 0 255
0.067903 0.036633 0.11271 2 255 0 0
0.19566 0.041885 0.11275 24 0 0 255
0.031618 0.047697 0.1136 2 255 0 0
0.1763 0.036371 0.11455 24 0 0 255
0.068601 0.035869 0.11281 2 255 0 0
0.173 0.026925 0.11456 24 0 0 255
0.15506 0.042166 0.11378 24 0 0 255
-0.0027749 0.040602 0.11509 2 255 0 0
0.029278 0.041329 0.11483 2 255 0 0
0.18774 0.051318 0.11454 24 0 0 255
0.19478 0.038595 0.11276 24 0 0 255
0.19697 0.026013 0.11275 24 0 0 255
0.01024 0.041425 0.11497 2 255 0 0
0.0031044 0.040248 0.11505 2 255 0 0
-0.004901 0.042422 0.11234 2 255 0 0
0.18767 0.042249 0.11277 24 0 0 255
0.078978 0.037206 0.11271 23 0 255 0
0.17486 0.035836 0.11456 24 0 0 255
0.2045 0.028527 0.11295 24 0 0 255
0.040295 0.045815 0.11432 2 255 0 0
0.034606 0.034374 0.11282 2 255 0 0
0.21224 0.048345 0.11273 24 0 0 255
0.056199 0.037107 0.11454 2 255 0 0
0.17147 0.025945 0.1128 24 0 0 255
0.19043 0.027963 0.11452 24 0 0 255
0.19037 0.029856 0.11452 24 0 0 255
0.16741 0.034714 0.11281 24 0 0 255
0.019583 0.04524 0.11269 2 255 0 0
0.12561 0.038727 0.11407 23 0 255 0
0.14006 0.04136 0.11397 23 0 255 0
0.16098 0.032929 0.11458 24 0 0 255
0.16113 0.036829 0.11282 24 0 0 255
0.18672 0.040137 0.11277 24 0 0 255
0.00054 0.033328 0.11277 2 255 0 0
0.19986 0.026322 0.1145 24 0 0 255
0.065065 0.033995 0.11321 2 255 0 0
0.17579 0.048649 0.1128 24 0 0 255
0.001741 0.037414 0.11501 2 255 0 0
0.07187 0.04558 0.114 2 255 0 0
0.17071 0.036684 0.11457 24 0 0 255
0.18115 0.035096 0.11454 24 0 0 255
0.15276 0.041362 0.11387 24 0 0 255
0.17685 0.038769 0.11455 24 0 0 255
0.15927 0.047803 0.11459 24 0 0 255
0.01463 0.040545 0.11236 2 255 0 0
0.032371 0.041321 0.11245 2 255 0 0
0.072002 0.039862 0.11257 2 255 0 0
0.16596 0.027621 0.11281 24 0 0 255
0.12919 0.044243 0.11353 23 0 255 0
0.066008 0.039116 0.11455 2 255 0 0
0.18834 0.032759 0.11453 24 0 0 255
0.19604 0.054745 0.11337 24 0 0 255
0.18975 0.037941 0.11453 24 0 0 255
0.069177 0.037497 0.11265 2 255 0 0
0.1265 0.040637 0.11278 23 0 255 0
0.002981 0.0367 0.11495 2 255 0 0
0.026802 0.034968 0.11458 2 255 0 0
0.14626 0.043562 0.11325 24 0 0 255
0.042956 0.04167 0.11472 2 255 0 0
0.12647 0.043513 0.11304 23 0 255 0
0.059261 0.044151 0.1144 2 255 0 0
0.17577 0.055406 0.11456 24 0 0 255
0.19324 0.050119 0.11379 24 0 0 255
0.0055918 0.0357 0.11486 2 255 0 0
0.16513 0.030729 0.11281 24 0 0 255
0.03186 0.039881 0.11242 2 255 0 0
0.076943 0.038014 0.11443 23 0 255 0
0.14015 0.037427 0.11381 24 0 0 255
0.2097 0.027635 0.11272 24 0 0 255
0.0024152 0.033116 0.11454 2 255 0 0
0.080648 0.038959 0.11262 23 0 255 0
0.0065795 0.037738 0.11236 2 255 0 0
0.22472 0.052211 0.11285 24 0 0 255
0.025608 0.036756 0.11477 2 255 0 0
0.16653 0.044807 0.11458 24 0 0 255
0.059841 0.040704 0.11254 2 255 0 0
0.15028 0.03823 0.11382 24 0 0 255
0.17416 0.043776 0.1128 24 0 0 255
0.16399 0.04858 0.11458 24 0 0 255
0.09085 0.04515 0.11317 23 0 255 0
0.048249 0.046296 0.11308 2 255 0 0
0.1662 0.038372 0.11281 24 0 0 255
0.096528 0.0452 0.11375 23 0 255 0
0.19598 0.039584 0.11275 24 0 0 255
0.16078 0.052001 0.11459 24 0 0 255
0.043182 0.047156 0.1138 2 255 0 0
0.0063678 0.033009 0.11447 2 255 0 0
0.11418 0.042863 0.11287 23 0 255 0
0.13514 0.03789 0.11293 23 0 255 0
0.024585 0.03728 0.11481 2 255 0 0
0.1327 0.041912 0.11399 23 0 255 0
0.027456 0.036634 0.11474 2 255 0 0
0.12333 0.04336 0.11299 23 0 255 0
0.04435 0.033514 0.11409 2 255 0 0
0.18012 0.053321 0.11455 24 0 0 255
0.20133 0.042608 0.11388 24 0 0 255
0.17094 0.042465 0.1128 24 0 0 255
0.16039 0.039839 0.11282 24 0 0 255
0.1145 0.038032 0.11281 23 0 255 0
0.11591 0.04176 0.11279 23 0 255 0
0.17132 0.041023 0.11457 24 0 0 255
0.16496 0.042822 0.11458 24 0 0 255
0.20353 0.026625 0.11273 24 0 0 255
0.16841 0.032942 0.11457 24 0 0 255
0.036005 0.038119 0.11477 2 255 0 0
0.032463 0.047437 0.11393 2 255 0 0
0.12407 0.042179 0.11285 23 0 255 0
0.016257 0.032663 0.11426 2 255 0 0
0.076284 0.038871 0.11261 23 0 255 0
-0.0075001 0.031762 0.11434 2 255 0 0
0.17212 0.044191 0.1128 24 0 0 255
0.20857 0.049095 0.11314 24 0 0 255
0.041768 0.044132 0.11266 2 255 0 0
0.20921 0.028408 0.1133 24 0 0 255
0.13004 0.040372 0.11408 23 0 255 0
0.12195 0.042248 0.11284 23 0 255 0
0.17116 0.03441 0.1128 24 0 0 255
0.19682 0.028722 0.1128 24 0 0 255
0.094952 0.036324 0.1129 23 0 255 0
0.000879 0.039155 0.11231 2 255 0 0
0.069642 0.036627 0.11438 2 255 0 0
0.10584 0.042632 0.11416 23 0 255 0
0.025509 0.039598 0.11488 2 255 0 0
0.18201 0.035492 0.11405 24 0 0 255
0.054098 0.035377 0.11438 2 255 0 0
0.16011 0.051284 0.11399 24 0 0 255
0.024914 0.046558 0.11434 2 255 0 0
-0.0015623 0.046414 0.11465 2 255 0 0
0.13078 0.043495 0.11307 23 0 255 0
0.031782 0.046009 0.11289 2 255 0 0
0.075013 0.034708 0.11307 2 255 0 0
0.17661 0.043652 0.11456 24 0 0 255
0.18587 0.048584 0.11278 24 0 0 255
0.19708 0.048467 0.11452 24 0 0 255
0.2162 0.051981 0.11371 24 0 0 255
0.21231 0.026866 0.11383 24 0 0 255
0.074361 0.039322 0.11449 2 255 0 0
-0.0023296 0.046929 0.11456 2 255 0 0
0.057084 0.038604 0.11461 2 255 0 0
0.17533 0.043219 0.1128 24 0 0 255
0.16792 0.026734 0.11457 24 0 0 255
0.022665 0.04651 0.11437 2 255 0 0
0.20581 0.038865 0.11273 24 0 0 255
0.11661 0.038466 0.11279 23 0 255 0
0.095995 0.035538 0.11394 23 0 255 0
0.17064 0.050694 0.11457 24 0 0 255
0.04477 0.038119 0.1147 2 255 0 0
0.03333 0.041156 0.11245 2 255 0 0
0.1752 0.049463 0.11456 24 0 0 255
0.16035 0.047779 0.11283 24 0 0 255
0.18616 0.042476 0.11277 24 0 0 255
0.053932 0.042891 0.11261 2 255 0 0
0.18012 0.026726 0.11278 24 0 0 255
0.046346 0.044089 0.11268 2 255 0 0
0.15949 0.046702 0.11283 24 0 0 255
0.19925 0.046743 0.11451 24 0 0 255
0.051162 0.045916 0.11418 2 255 0 0
0.18928 0.027106 0.11276 24 0 0 255
0.19321 0.045764 0.11281 24 0 0 255
0.011485 0.041159 0.11497 2 255 0 0
0.065882 0.040703 0.11256 2 255 0 0
0.20357 0.046511 0.11274 24 0 0 255
0.16301 0.048664 0.11282 24 0 0 255
0.20185 0.031491 0.1145 24 0 0 255
0.17096 0.048576 0.11457 24 0 0 255
0.05562 0.044487 0.11278 2 255 0 0
0.082796 0.043683 0.11424 23 0 255 0
0.18682 0.050549 0.1137 24 0 0 255
0.20154 0.05426 0.11451 24 0 0 255
0.078687 0.036994 0.11434 23 0 255 0
0.11518 0.042778 0.11287 23 0 255 0
0.023203 0.03293 0.11304 2 255 0 0
0.18621 0.031773 0.11453 24 0 0 255
0.096507 0.043424 0.11415 23 0 255 0
0.058259 0.045063 0.11427 2 255 0 0
0.01537 0.032606 0.11306 2 255 0 0
0.11633 0.041723 0.11414 23 0 255 0
0.10656 0.04343 0.11406 23 0 255 0
0.19558 0.03824 0.11275 24 0 0 255
0.041386 0.043306 0.11258 2 255 0 0
0.044181 0.047158 0.11375 2 255 0 0
0.17823 0.032765 0.11279 24 0 0 255
0.18966 0.048641 0.11277 24 0 0 255
0.18655 0.05469 0.11278 24 0 0 255
0.035798 0.037273 0.11472 2 255 0 0
0.10274 0.045188 0.11355 23 0 255 0
0.16533 0.040629 0.11458 24 0 0 255
0.10626 0.038283 0.11276 23 0 255 0
0.18407 0.035913 0.11374 24 0 0 255
0.13892 0.042779 0.11385 23 0 255 0
0.19898 0.041543 0.11275 24 0 0 255
-0.0043805 0.045108 0.11485 2 255 0 0
0.021447 0.04683 0.11298 2 255 0 0
0.21362 0.0278 0.11271 24 0 0 255
0.045346 0.041838 0.1147 2 255 0 0
0.047091 0.04628 0.11414 2 255 0 0
0.083831 0.038748 0.11441 23 0 255 0
0.038511 0.036335 0.11259 2 255 0 0
0.066858 0.038492 0.11258 2 255 0 0
0.19968 0.032665 0.11274 24 0 0 255
0.074085 0.035028 0.11409 2 255 0 0
0.18733 0.026526 0.11453 24 0 0 255
0.12259 0.039502 0.11412 23 0 255 0
0.16948 0.055179 0.11281 24 0 0 255
0.16926 0.050008 0.11281 24 0 0 255
0.040723 0.040048 0.11477 2 255 0 0
-0.002544 0.037765 0.11506 2 255 0 0
0.16221 0.02928 0.11282 24 0 0 255
0.062047 0.035742 0.11279 2 255 0 0
0.18863 0.033692 0.11453 24 0 0 255
0.18984 0.025957 0.11276 24 0 0 255
0.020361 0.044397 0.11471 2 255 0 0
0.12017 0.038254 0.11409 23 0 255 0
0.18321 0.027773 0.11454 24 0 0 255
0.18924 0.034946 0.11323 24 0 0 255
-0.0037783 0.037131 0.11236 2 255 0 0
0.0095444 0.037398 0.11494 2 255 0 0
0.1936 0.040435 0.11452 24 0 0 255
0.18371 0.053768 0.11278 24 0 0 255
0.18166 0.043672 0.11455 24 0 0 255
0.16325 0.053261 0.11459 24 0 0 255
0.067767 0.038734 0.11258 2 255 0 0
0.17798 0.054243 0.11456 24 0 0 255
0.17579 0.042132 0.11279 24 0 0 255
0.16707 0.032752 0.11281 24 0 0 255
-0.010189 0.041959 0.11286 2 255 0 0
0.14148 0.043807 0.11351 23 0 255 0
0.17617 0.028027 0.11279 24 0 0 255
0.063805 0.04365 0.11272 2 255 0 0
0.046835 0.034154 0.11296 2 255 0 0
0.18627 0.055606 0.11328 24 0 0 255
0.10677 0.040588 0.11271 23 0 255 0
0.011301 0.035459 0.11255 2 255 0 0
0.16802 0.048556 0.11281 24 0 0 255
0.02317 0.037775 0.11485 2 255 0 0
0.21079 0.039877 0.11272 24 0 0 255
0.2223 0.03237 0.1127 24 0 0 255
0.12204 0.041302 0.11412 23 0 255 0
0.17946 0.049332 0.11279 24 0 0 255
0.21686 0.047448 0.11347 24 0 0 255
0.083767 0.042571 0.11434 23 0 255 0
0.010392 0.037304 0.11241 2 255 0 0
0.21631 0.027233 0.11366 24 0 0 255
-0.0076423 0.038153 0.1151 2 255 0 0
0.21271 0.03954 0.11448 24 0 0 255
0.081059 0.04299 0.11434 2 255 0 0
0.19482 0.033655 0.11452 24 0 0 255
0.19502 0.046387 0.11452 24 0 0 255
0.2129 0.048805 0.11324 24 0 0 255
0.021143 0.042112 0.11487 2 255 0 0
0.053179 0.040164 0.1125 2 255 0 0
0.00023458 0.034215 0.11263 2 255 0 0
0.080613 0.040474 0.11445 2 255 0 0
0.17332 0.029714 0.11456 24 0 0 255
0.025091 0.044179 0.11259 2 255 0 0
0.19902 0.040348 0.11451 24 0 0 255
0.18533 0.033334 0.11277 24 0 0 255
0.1752 0.038619 0.11279 24 0 0 255
0.16406 0.042313 0.11458 24 0 0 255
0.061917 0.03999 0.1146 2 255 0 0
0.028534 0.046677 0.11427 2 255 0 0
0.060781 0.033521 0.1134 2 255 0 0
0.045468 0.043824 0.11264 2 255 0 0
0.18598 0.025486 0.11277 24 0 0 255
0.025083 0.045497 0.11454 2 255 0 0
0.1694 0.028454 0.11456 24 0 0 255
0.16706 0.054179 0.11458 24 0 0 255
0.0077132 0.036056 0.11248 2 255 0 0
0.090426 0.036911 0.11422 23 0 255 0
0.18737 0.035088 0.11301 24 0 0 255
0.00013354 0.031415 0.11407 2 255 0 0
0.0089991 0.033515 0.1128 2 255 0 0
0.18118 0.045915 0.11278 24 0 0 255
0.19136 0.050245 0.11403 24 0 0 255
0.16204 0.048026 0.11282 24 0 0 255
0.17916 0.033169 0.11278 24 0 0 255
0.032831 0.045738 0.11284 2 255 0 0
0.10465 0.03732 0.11283 23 0 255 0
0.041135 0.045578 0.11436 2 255 0 0
0.17833 0.036386 0.11279 24 0 0 255
0.0078421 0.034803 0.1126 2 255 0 0
0.18644 0.024493 0.11443 24 0 0 255
0.18018 0.048741 0.11279 24 0 0 255
0.074878 0.038013 0.11444 2 255 0 0
0.16895 0.025795 0.11456 24 0 0 255
0.009268 0.037637 0.11238 2 255 0 0
0.17324 0.045084 0.1128 24 0 0 255
-0.0081901 0.042813 0.11235 2 255 0 0
0.045453 0.040738 0.11248 2 255 0 0
-0.0056411 0.048353 0.1132 2 255 0 0
0.0050831 0.04836 0.11402 2 255 0 0
-0.0046205 0.04813 0.11428 2 255 0 0
0.045957 0.041873 0.11251 2 255 0 0
0.0092865 0.044371 0.11482 2 255 0 0
0.18255 0.033829 0.11454 24 0 0 255
0.16809 0.040909 0.11281 24 0 0 255
0.12872 0.041245 0.11281 23 0 255 0
0.16707 0.029338 0.11457 24 0 0 255
0.030553 0.045734 0.11282 2 255 0 0
0.20765 0.053721 0.11417 24 0 0 255
0.10801 0.037133 0.11287 23 0 255 0
0.047602 0.038694 0.11469 2 255 0 0
0.21191 0.052796 0.11449 24 0 0 255
0.11229 0.03953 0.11421 23 0 255 0
0.16054 0.044647 0.11459 24 0 0 255
0.012231 0.033675 0.11454 2 255 0 0
0.05822 0.038501 0.1146 2 255 0 0
0.10015 0.038294 0.11273 23 0 255 0
0.10085 0.036519 0.11408 23 0 255 0
0.1871 0.05378 0.11454 24 0 0 255
0.051532 0.04119 0.11466 2 255 0 0
0.16105 0.033357 0.11282 24 0 0 255
0.17069 0.046836 0.11281 24 0 0 255
0.18001 0.02419 0.11454 24 0 0 255
0.19156 0.052177 0.11277 24 0 0 255
0.10425 0.044045 0.11398 23 0 255 0
0.12089 0.041394 0.11412 23 0 255 0
0.20746 0.028447 0.11449 24 0 0 255
0.13524 0.036649 0.11316 23 0 255 0
0.13937 0.038914 0.11286 23 0 255 0
0.043454 0.044328 0.1127 2 255 0 0
0.13686 0.040841 0.11402 23 0 255 0
0.10429 0.035767 0.11308 23 0 255 0
0.21761 0.052843 0.11447 24 0 0 255
0.066972 0.038648 0.11454 2 255 0 0
0.18931 0.051701 0.11277 24 0 0 255
0.050134 0.036874 0.11457 2 255 0 0
0.057203 0.046164 0.11402 2 255 0 0
0.17355 0.033536 0.11456 24 0 0 255
0.16475 0.025182 0.1141 24 0 0 255
0.09206 0.039865 0.11265 23 0 255 0
0.043071 0.041894 0.1125 2 255 0 0
-0.0058179 0.032206 0.11445 2 255 0 0
0.08875 0.041885 0.11268 23 0 255 0
0.033305 0.047162 0.11323 2 255 0 0
0.2154 0.031865 0.11271 24 0 0 255
0.034348 0.039919 0.11243 2 255 0 0
0.16407 0.0513 0.11282 24 0 0 255
0.053159 0.045241 0.11288 2 255 0 0
0.0047181 0.032081 0.11424 2 255 0 0
0.023651 0.033994 0.11447 2 255 0 0
0.095573 0.035717 0.11302 23 0 255 0
0.1787 0.028869 0.11278 24 0 0 255
0.16265 0.045579 0.11459 24 0 0 255
0.16711 0.051405 0.11281 24 0 0 255
0.18422 0.032996 0.11277 24 0 0 255
0.14689 0.038716 0.1139 24 0 0 255
0.16213 0.032472 0.11282 24 0 0 255
0.21419 0.028202 0.11448 24 0 0 255
0.015641 0.041879 0.11239 2 255 0 0
0.10733 0.038801 0.11423 23 0 255 0
0.054922 0.035356 0.11279 2 255 0 0
-0.0066866 0.032336 0.11448 2 255 0 0
0.22297 0.028059 0.11384 24 0 0 255
0.070283 0.038402 0.11451 2 255 0 0
0.1339 0.036961 0.11379 23 0 255 0
0.17321 0.038952 0.11456 24 0 0 255
0.16861 0.056314 0.11367 24 0 0 255
0.17523 0.046166 0.1128 24 0 0 255
0.082567 0.035838 0.11289 23 0 255 0
0.11509 0.040146 0.1142 23 0 255 0
0.18437 0.051393 0.11278 24 0 0 255
0.0071299 0.044819 0.11478 2 255 0 0
0.17242 0.04578 0.1128 24 0 0 255
0.10222 0.040329 0.11269 23 0 255 0
0.18702 0.054839 0.11454 24 0 0 255
0.17831 0.046633 0.11279 24 0 0 255
0.19612 0.049919 0.11452 24 0 0 255
0.19344 0.054469 0.11453 24 0 0 255
0.15465 0.042318 0.11301 24 0 0 255
0.021285 0.034144 0.11453 2 255 0 0
0.091115 0.044098 0.11291 23 0 255 0
0.21068 0.027756 0.11272 24 0 0 255
0.16917 0.030813 0.1128 24 0 0 255
0.077055 0.035882 0.11285 23 0 255 0
0.20584 0.047393 0.11274 24 0 0 255
0.20685 0.041101 0.1145 24 0 0 255
0.18275 0.052066 0.11278 24 0 0 255
0.0029236 0.034687 0.11259 2 255 0 0
0.18543 0.035234 0.11342 24 0 0 255
0.16619 0.037181 0.11281 24 0 0 255
0.0049872 0.042469 0.11498 2 255 0 0
0.2019 0.03063 0.11382 24 0 0 255
0.19879 0.054502 0.11395 24 0 0 255
0.20082 0.047571 0.11451 24 0 0 255
0.2087 0.039755 0.11273 24 0 0 255
0.022299 0.042 0.11487 2 255 0 0
0.078728 0.041005 0.11446 2 255 0 0
0.089628 0.042676 0.11429 23 0 255 0
0.1674 0.038896 0.11457 24 0 0 255
0.1812 0.038583 0.11278 24 0 0 255
-0.0021526 0.041657 0.11506 2 255 0 0
0.01589 0.047353 0.11424 2 255 0 0
0.082132 0.036523 0.11425 23 0 255 0
0.16871 0.029215 0.11457 24 0 0 255
0.17136 0.026624 0.11456 24 0 0 255
0.19554 0.054265 0.11452 24 0 0 255
0.20487 0.053146 0.11274 24 0 0 255
0.10154 0.039544 0.11269 23 0 255 0
0.039802 0.040582 0.11476 2 255 0 0
0.18574 0.037509 0.11454 24 0 0 255
0.19583 0.025354 0.11409 24 0 0 255
0.15935 0.049957 0.11283 24 0 0 255
0.17995 0.032731 0.11278 24 0 0 255
-0.0017689 0.038619 0.11507 2 255 0 0
0.020781 0.04298 0.11482 2 255 0 0
0.20149 0.041311 0.11451 24 0 0 255
0.034729 0.03262 0.11391 2 255 0 0
0.16947 0.045316 0.11457 24 0 0 255
0.045439 0.040734 0.11472 2 255 0 0
0.20574 0.040588 0.11273 24 0 0 255
0.17895 0.041663 0.11455 24 0 0 255
0.028126 0.039689 0.11241 2 255 0 0
0.15846 0.030913 0.11365 24 0 0 255
0.17253 0.047968 0.11457 24 0 0 255
0.0020874 0.033753 0.1127 2 255 0 0
0.18279 0.050817 0.11394 24 0 0 255
0.20251 0.028578 0.11393 24 0 0 255
0.17082 0.050666 0.11281 24 0 0 255
0.13504 0.040857 0.11403 23 0 255 0
0.21663 0.031678 0.11293 24 0 0 255
0.16482 0.039777 0.11458 24 0 0 255
0.16247 0.049812 0.11282 24 0 0 255
0.17898 0.038747 0.11279 24 0 0 255
0.17018 0.041044 0.1128 24 0 0 255
0.068147 0.045537 0.11407 2 255 0 0
0.14451 0.041827 0.11391 24 0 0 255
0.10482 0.041697 0.11423 23 0 255 0
0.11578 0.0369 0.11294 23 0 255 0
0.19355 0.036896 0.11365 24 0 0 255
0.10112 0.037847 0.11276 23 0 255 0
0.019482 0.046272 0.11445 2 255 0 0
0.18868 0.055389 0.11454 24 0 0 255
0.20196 0.033959 0.1145 24 0 0 255
0.059294 0.034766 0.11421 2 255 0 0
0.18174 0.026667 0.11278 24 0 0 255
0.19973 0.051538 0.11321 24 0 0 255
0.13954 0.041672 0.11288 23 0 255 0
0.19448 0.026969 0.11275 24 0 0 255
0.10516 0.039304 0.11271 23 0 255 0
0.044681 0.03942 0.11248 2 255 0 0
0.20322 0.037899 0.1142 24 0 0 255
-0.0006282 0.043506 0.11242 2 255 0 0
0.16656 0.055583 0.11282 24 0 0 255
0.19189 0.053489 0.11453 24 0 0 255
0.1223 0.038281 0.11407 23 0 255 0
-0.0052481 0.042854 0.11504 2 255 0 0
-0.0035178 0.039657 0.11229 2 255 0 0
0.014356 0.037765 0.11492 2 255 0 0
0.20524 0.053934 0.11316 24 0 0 255
0.16879 0.032448 0.1128 24 0 0 255
0.17804 0.040493 0.11279 24 0 0 255
0.12417 0.0398 0.11412 23 0 255 0
0.1268 0.037464 0.11395 23 0 255 0
0.080777 0.036009 0.1142 23 0 255 0
0.12671 0.043017 0.11393 23 0 255 0
-0.0034033 0.048656 0.11404 2 255 0 0
0.015148 0.042911 0.11487 2 255 0 0
0.059088 0.038379 0.11459 2 255 0 0
0.18654 0.027574 0.11453 24 0 0 255
0.13612 0.042577 0.11295 23 0 255 0
0.051848 0.046771 0.11388 2 255 0 0
0.18092 0.026253 0.11278 24 0 0 255
0.010687 0.04736 0.11302 2 255 0 0
0.19921 0.025665 0.11347 24 0 0 255
0.19045 0.049798 0.11453 24 0 0 255
0.10764 0.044354 0.11308 23 0 255 0
0.056041 0.043788 0.11447 2 255 0 0
0.098077 0.036158 0.11404 23 0 255 0
0.016442 0.045031 0.11467 2 255 0 0
0.099157 0.043363 0.11286 23 0 255 0
0.16222 0.043377 0.11458 24 0 0 255
0.19129 0.029875 0.11405 24 0 0 255
0.19616 0.049924 0.11308 24 0 0 255
0.052192 0.038298 0.11253 2 255 0 0
0.078648 0.040968 0.11261 2 255 0 0
0.21191 0.048648 0.11449 24 0 0 255
0.10363 0.041592 0.11425 23 0 255 0
0.00095549 0.040831 0.11506 2 255 0 0
-0.0048692 0.037409 0.11506 2 255 0 0
0.16923 0.04467 0.11281 24 0 0 255
0.20175 0.025897 0.11441 24 0 0 255
0.016119 0.037309 0.11243 2 255 0 0
0.08519 0.037321 0.11273 23 0 255 0
0.080316 0.042355 0.11439 2 255 0 0
0.019121 0.04718 0.11425 2 255 0 0
0.071534 0.03616 0.11431 2 255 0 0
0.11271 0.038665 0.11417 23 0 255 0
0.18024 0.044512 0.11279 24 0 0 255
0.00832 0.04719 0.11439 2 255 0 0
0.033148 0.036475 0.11469 2 255 0 0
0.085658 0.036022 0.11288 23 0 255 0
0.00091005 0.041198 0.11233 2 255 0 0
0.15146 0.041195 0.11389 24 0 0 255
0.053797 0.042736 0.11457 2 255 0 0
0.19755 0.038974 0.11451 24 0 0 255
0.041994 0.041327 0.11248 2 255 0 0
0.12894 0.043416 0.11304 23 0 255 0
0.16348 0.052915 0.11282 24 0 0 255
0.055743 0.036236 0.11269 2 255 0 0
0.18147 0.048734 0.11279 24 0 0 255
-0.009125 0.037852 0.11511 2 255 0 0
0.10431 0.040759 0.11427 23 0 255 0
0.024338 0.03343 0.11434 2 255 0 0
0.16867 0.023712 0.11394 24 0 0 255
0.18655 0.042749 0.11454 24 0 0 255
0.14871 0.042294 0.11298 24 0 0 255
0.013405 0.040981 0.11237 2 255 0 0
0.06339 0.038785 0.11457 2 255 0 0
0.0686 0.035244 0.1142 2 255 0 0
0.18287 0.038942 0.11278 24 0 0 255
0.16708 0.035729 0.11457 24 0 0 255
0.21479 0.041189 0.11279 24 0 0 255
0.10921 0.038159 0.11417 23 0 255 0
0.14323 0.038782 0.11393 24 0 0 255
0.085139 0.045391 0.11319 2 255 0 0
0.037806 0.042179 0.11249 2 255 0 0
0.060401 0.036375 0.1127 2 255 0 0
0.1844 0.026292 0.11453 24 0 0 255
0.1294 0.039143 0.11281 23 0 255 0
0.19397 0.037691 0.11276 24 0 0 255
-0.0028018 0.031843 0.11428 2 255 0 0
0.097648 0.04294 0.1142 23 0 255 0
0.095002 0.039054 0.11268 23 0 255 0
0.10946 0.041133 0.11273 23 0 255 0
0.054803 0.036233 0.11269 2 255 0 0
0.19244 0.045708 0.114 24 0 0 255
0.17585 0.050233 0.11456 24 0 0 255
0.091561 0.04452 0.11402 23 0 255 0
0.16562 0.026106 0.11281 24 0 0 255
0.033711 0.035449 0.11267 2 255 0 0
0.20528 0.032263 0.11273 24 0 0 255
0.049089 0.034486 0.11291 2 255 0 0
0.19243 0.038958 0.11276 24 0 0 255
0.023331 0.032728 0.11416 2 255 0 0
0.11745 0.038034 0.11282 23 0 255 0
0.20459 0.040427 0.11274 24 0 0 255
0.11837 0.038337 0.11411 23 0 255 0
0.011275 0.044568 0.11256 2 255 0 0
-0.010181 0.03981 0.11514 2 255 0 0
0.0055444 0.046203 0.11274 2 255 0 0
0.0080224 0.041618 0.11499 2 255 0 0
0.015595 0.042102 0.11492 2 255 0 0
0.0040656 0.039009 0.11503 2 255 0 0
-0.0051328 0.043838 0.11497 2 255 0 0
0.21221 0.039825 0.11272 24 0 0 255
0.18603 0.03506 0.11277 24 0 0 255
0.21577 0.052754 0.11448 24 0 0 255
0.18638 0.046396 0.11278 24 0 0 255
0.185 0.044057 0.11454 24 0 0 255
0.19233 0.028836 0.11286 24 0 0 255
0.14832 0.039905 0.11286 24 0 0 255
-0.0032684 0.031389 0.11326 2 255 0 0
-0.0067028 0.038936 0.11229 2 255 0 0
0.090608 0.036019 0.11292 23 0 255 0
0.00040415 0.044462 0.11488 2 255 0 0
-0.0079874 0.033689 0.11475 2 255 0 0
0.18844 0.036423 0.11277 24 0 0 255
0.21329 0.051935 0.11449 24 0 0 255
0.10453 0.042064 0.11276 23 0 255 0
0.13676 0.040818 0.11283 23 0 255 0
0.066735 0.037646 0.11263 2 255 0 0
0.078956 0.044831 0.1141 2 255 0 0
-0.003964 0.035112 0.1125 2 255 0 0
0.18911 0.038346 0.11277 24 0 0 255
0.10186 0.045219 0.11355 23 0 255 0
0.16937 0.033277 0.1128 24 0 0 255
0.012338 0.046019 0.11275 2 255 0 0
0.1971 0.046256 0.11275 24 0 0 255
0.16723 0.036974 0.11281 24 0 0 255
0.16882 0.047991 0.11457 24 0 0 255
0.21292 0.028314 0.1131 24 0 0 255
0.21847 0.048434 0.11272 24 0 0 255
0.20666 0.052665 0.1145 24 0 0 255
0.13792 0.037805 0.11388 24 0 0 255
0.19725 0.054595 0.11276 24 0 0 255
0.069714 0.039303 0.11257 2 255 0 0
0.090058 0.044161 0.11292 23 0 255 0
0.16466 0.053008 0.11458 24 0 0 255
0.16701 0.054614 0.11282 24 0 0 255
0.1648 0.047894 0.11458 24 0 0 255
0.023898 0.040158 0.11489 2 255 0 0
0.21313 0.052812 0.11273 24 0 0 255
0.044491 0.043837 0.11264 2 255 0 0
0.072092 0.035146 0.11414 23 0 255 0
0.18 0.025469 0.11278 24 0 0 255
-0.0089115 0.043615 0.11502 2 255 0 0
0.042259 0.042982 0.11257 2 255 0 0
0.042849 0.044661 0.11448 2 255 0 0
-0.010014 0.032888 0.11278 2 255 0 0
0.16072 0.03542 0.11458 24 0 0 255
0.17146 0.047851 0.11457 24 0 0 255
0.18648 0.035155 0.11432 24 0 0 255
-0.0081437 0.03935 0.11228 2 255 0 0
0.17326 0.054246 0.11457 24 0 0 255
0.13463 0.043785 0.11367 23 0 255 0
0.19982 0.039622 0.11275 24 0 0 255
0.12062 0.035724 0.11351 23 0 255 0
0.18169 0.033085 0.11454 24 0 0 255
0.18523 0.032331 0.11277 24 0 0 255
0.014357 0.039322 0.11496 2 255 0 0
0.20555 0.04794 0.1145 24 0 0 255
0.16913 0.036937 0.11457 24 0 0 255
0.0016609 0.039704 0.11507 2 255 0 0
0.056073 0.034858 0.11289 2 255 0 0
0.050678 0.042123 0.11254 2 255 0 0
0.025895 0.03478 0.11457 2 255 0 0
-0.0065808 0.047088 0.11284 2 255 0 0
0.031719 0.037799 0.11478 2 255 0 0
0.14742 0.041195 0.11392 24 0 0 255
0.049506 0.041438 0.11251 2 255 0 0
0.075883 0.042057 0.11264 2 255 0 0
0.1508 0.037062 0.11321 24 0 0 255
0.1899 0.03764 0.11276 24 0 0 255
0.093955 0.040137 0.11436 23 0 255 0
0.16903 0.041259 0.11281 24 0 0 255
0.079297 0.043824 0.11281 2 255 0 0
0.19226 0.050185 0.11278 24 0 0 255
0.18306 0.035808 0.11379 24 0 0 255
0.16489 0.030134 0.11457 24 0 0 255
0.00042796 0.048102 0.1142 2 255 0 0
0.19448 0.046019 0.11276 24 0 0 255
0.20384 0.049411 0.1142 24 0 0 255
0.19564 0.02658 0.11275 24 0 0 255
0.093724 0.037539 0.11275 23 0 255 0
0.16012 0.038507 0.11459 24 0 0 255
0.063495 0.045241 0.11418 2 255 0 0
0.1762 0.03454 0.11455 24 0 0 255
0.16806 0.023858 0.11457 24 0 0 255
0.0066429 0.04388 0.11488 2 255 0 0
0.17246 0.029949 0.11456 24 0 0 255
0.1708 0.029052 0.1128 24 0 0 255
-0.0068511 0.044228 0.11496 2 255 0 0
0.19615 0.031425 0.11275 24 0 0 255
0.045178 0.033909 0.1142 2 255 0 0
0.21715 0.048162 0.11448 24 0 0 255
0.06119 0.035774 0.11278 2 255 0 0
0.11483 0.037115 0.11291 23 0 255 0
-0.005601 0.037986 0.11509 2 255 0 0
0.19145 0.033885 0.11452 24 0 0 255
0.047715 0.045515 0.1143 2 255 0 0
0.11871 0.036883 0.11395 23 0 255 0
0.062213 0.040893 0.11459 2 255 0 0
0.048644 0.043092 0.1126 2 255 0 0
0.17248 0.029664 0.1128 24 0 0 255
-0.0071304 0.032366 0.11291 2 255 0 0
0.17801 0.027876 0.11278 24 0 0 255
0.040733 0.033267 0.11315 2 255 0 0
-0.0084802 0.04394 0.11242 2 255 0 0
0.032099 0.034021 0.11437 2 255 0 0
0.16332 0.03252 0.11281 24 0 0 255
0.18834 0.025436 0.11276 24 0 0 255
0.12648 0.038275 0.11403 23 0 255 0
0.19151 0.03131 0.11276 24 0 0 255
0.19245 0.047443 0.11453 24 0 0 255
0.20259 0.046432 0.11325 24 0 0 255
0.061907 0.037594 0.11261 2 255 0 0
0.12195 0.03875 0.1128 23 0 255 0
0.18274 0.055918 0.11397 24 0 0 255
0.088379 0.044377 0.11408 23 0 255 0
0.19637 0.040597 0.11275 24 0 0 255
0.1662 0.04759 0.11458 24 0 0 255
0.13887 0.040296 0.11401 23 0 255 0
0.18207 0.045569 0.11455 24 0 0 255
0.21534 0.032974 0.11292 24 0 0 255
0.066059 0.034525 0.11408 2 255 0 0
0.16325 0.027798 0.11281 24 0 0 255
0.18199 0.05271 0.11455 24 0 0 255
0.043957 0.039194 0.11473 2 255 0 0
0.11998 0.040628 0.11415 23 0 255 0
0.20847 0.027915 0.11272 24 0 0 255
0.1233 0.040133 0.11413 23 0 255 0
0.20047 0.048404 0.11451 24 0 0 255
0.06439 0.046091 0.1132 2 255 0 0
0.019508 0.035658 0.11473 2 255 0 0
0.089062 0.038163 0.11269 23 0 255 0
0.091882 0.035318 0.11394 23 0 255 0
-0.0092341 0.03327 0.11271 2 255 0 0
0.16986 0.036454 0.11457 24 0 0 255
0.20869 0.051779 0.11315 24 0 0 255
0.20067 0.039418 0.11274 24 0 0 255
-0.0016399 0.033322 0.11275 2 255 0 0
0.17491 0.028186 0.11279 24 0 0 255
3.0777e-05 0.033135 0.11457 2 255 0 0
0.11953 0.037366 0.1129 23 0 255 0
0.10222 0.04427 0.11395 23 0 255 0
0.031524 0.03784 0.11246 2 255 0 0
0.093536 0.044954 0.11389 23 0 255 0
0.16016 0.038504 0.11282 24 0 0 255
0.17621 0.027993 0.11455 24 0 0 255
0.077983 0.038454 0.11263 23 0 255 0
0.19658 0.02693 0.11275 24 0 0 255
0.17819 0.031484 0.11278 24 0 0 255
0.18559 0.054417 0.11278 24 0 0 255
0.15311 0.042693 0.11372 24 0 0 255
0.17959 0.034791 0.11278 24 0 0 255
0.15965 0.045246 0.11459 24 0 0 255
0.090434 0.035035 0.11316 23 0 255 0
0.17006 0.042753 0.11457 24 0 0 255
0.21343 0.039182 0.11272 24 0 0 255
0.066875 0.040595 0.11256 2 255 0 0
0.12107 0.036923 0.11393 23 0 255 0
0.19068 0.033203 0.11276 24 0 0 255
0.18558 0.055667 0.11413 24 0 0 255
0.052595 0.034859 0.11431 2 255 0 0
0.080246 0.041402 0.11444 2 255 0 0
0.15808 0.036735 0.11283 24 0 0 255
0.19719 0.049855 0.11412 24 0 0 255
0.13505 0.040054 0.11281 23 0 255 0
0.16735 0.045432 0.11281 24 0 0 255
0.19024 0.033262 0.11453 24 0 0 255
0.1374 0.041624 0.11287 23 0 255 0
0.18252 0.049217 0.11455 24 0 0 255
0.18388 0.050171 0.11278 24 0 0 255
0.19663 0.052887 0.11452 24 0 0 255
0.050002 0.034753 0.11286 2 255 0 0
2.7968e-05 0.04193 0.11234 2 255 0 0
