ply
format ascii 1.0
comment author Paulo Abelha (p.abelha at abdn ac uk)
element vertex 714
property float x
property float y
property float z
property int segm
property float nx
property float ny
property float nz
property uchar red
property uchar green
property uchar blue
end_header
-0.082054 -0.0086933 -0.00081695 1 -0.2442 0.054078 -0.96822 255 0 0
-0.07422 -0.0087433 -0.00056695 1 0.018384 -0.36836 -0.9295 255 0 0
-0.077806 -0.0088533 -0.00063695 1 -0.18533 -0.24066 -0.95275 255 0 0
-0.076389 -0.0071133 -0.001437 1 -0.15413 -0.29664 -0.94247 255 0 0
-0.078712 -0.0069133 -0.001507 1 -0.042139 -0.36858 -0.92864 255 0 0
-0.075759 -0.0076433 0.00096305 1 -0.0039419 0.017434 -0.99984 255 0 0
-0.077219 -0.0086033 0.00052305 1 -0.44942 -0.3112 0.83736 255 0 0
-0.077621 -0.0074933 -0.001327 1 0.00037063 0.25491 -0.96697 255 0 0
-0.078553 -0.0078833 0.00097305 1 0.046093 -0.87237 0.48667 255 0 0
-0.075177 -0.0070333 -0.001457 1 0.026447 0.12823 0.99139 255 0 0
-0.076611 -0.0080833 -0.001087 1 0.0023902 -0.1047 -0.9945 255 0 0
-0.078679 -0.0088533 0.00045305 1 -0.036977 0.52456 0.85057 255 0 0
-0.076873 -0.0074633 0.001043 1 0.0016927 -0.33633 -0.94174 255 0 0
-0.074261 -0.0084833 0.00046305 1 0.025963 -0.11658 0.99284 255 0 0
-0.075761 -0.0087933 0.00027305 1 0.026935 0.2109 0.97714 255 0 0
-0.074252 -0.0077733 -0.001217 1 0.088162 -0.19545 -0.97674 255 0 0
-0.076707 -0.0089333 -0.00040695 1 -0.23819 0.21444 0.94725 255 0 0
-0.075521 -0.0082933 -0.00094695 1 -0.1519 -0.29816 -0.94235 255 0 0
-0.071252 -0.0071433 -0.001407 1 0.049932 -0.95694 -0.28597 255 0 0
-0.072227 -0.0081833 -0.00095695 1 0.038475 -0.5998 -0.79923 255 0 0
-0.070397 -0.0070933 0.00095305 1 0.047627 0.42046 0.90606 255 0 0
-0.07247 -0.0079933 0.00066305 1 -0.098517 -0.34497 -0.93343 255 0 0
-0.070952 -0.0081533 0.00051305 1 0.017206 -0.6199 -0.78449 255 0 0
-0.071388 -0.0088033 -0.00018695 1 0.15199 -0.25933 -0.95375 255 0 0
-0.06934 -0.0087033 -0.00020695 1 0.035359 -0.52521 0.85024 255 0 0
-0.070074 -0.0078533 -0.001117 1 -0.0056178 -0.014146 -0.99988 255 0 0
-0.072499 -0.0088233 -9.6953e-05 1 -0.34523 -0.077089 0.93535 255 0 0
-0.068932 -0.0074833 -0.001287 1 -0.082668 0.50952 0.85648 255 0 0
-0.073622 -0.0075133 0.00093305 1 -0.018786 0.52303 0.8521 255 0 0
-0.073065 -0.0074733 -0.001307 1 -0.24316 -0.061557 -0.96803 255 0 0
-0.069627 -0.0077633 0.00067305 1 0.026064 0.035955 0.99901 255 0 0
-0.063951 -0.0070133 0.00076305 1 0.12209 0.29921 -0.94635 255 0 0
-0.064531 -0.0082633 9.3045e-05 1 0.21664 0.070488 -0.9737 255 0 0
-0.068266 -0.0073733 0.00079305 1 -0.37389 -0.25442 -0.89189 255 0 0
-0.066101 -0.0080233 -0.00095695 1 -0.19754 0.22985 -0.95297 255 0 0
-0.067159 -0.0086233 -0.00028695 1 -0.096087 -0.34738 -0.93279 255 0 0
-0.068349 -0.0084833 9.3046e-05 1 0.13772 -0.27268 -0.9522 255 0 0
-0.065745 -0.0069633 0.00084305 1 0.025608 -0.096519 0.995 255 0 0
-0.065713 -0.0083833 -6.9542e-06 1 -0.0036568 0.049772 -0.99875 255 0 0
-0.067137 -0.0076733 -0.001167 1 -0.0037964 0.051701 -0.99866 255 0 0
-0.067191 -0.0070933 0.00084305 1 -0.0028691 0.018636 -0.99982 255 0 0
-0.064669 -0.0080533 -0.00091695 1 -0.13731 0.19924 -0.97028 255 0 0
-0.063128 -0.0070633 -0.001397 1 0.010467 -0.38473 -0.92297 255 0 0
-0.063617 -0.0083733 -0.00046695 1 -0.11402 -0.49561 0.86103 255 0 0
-0.063133 -0.0078533 0.00034305 1 -0.0010988 0.12113 -0.99264 255 0 0
-0.06263 -0.0081333 -0.00082695 1 0.034985 -0.91138 -0.41008 255 0 0
-0.061766 -0.0082133 -8.6955e-05 1 -0.097344 -0.51759 0.85007 255 0 0
-0.061803 -0.0070033 -0.001407 1 0.17087 0.22865 -0.9584 255 0 0
-0.059316 -0.0075734 0.00033305 1 -0.31761 0.21783 0.92286 255 0 0
-0.061756 -0.0070733 0.00067305 1 0 0 0 255 0 0
-0.060749 -0.0082034 -0.00055695 1 0.024097 0.061395 0.99782 255 0 0
-0.060497 -0.0076734 0.00033305 1 0.02685 0.20404 0.97859 255 0 0
-0.059689 -0.0075434 -0.001137 1 -0.0042762 0.021164 -0.99977 255 0 0
-0.056313 -0.0070434 -0.001367 1 -0.34946 -0.012141 0.93687 255 0 0
-0.057282 -0.0071334 0.00049305 1 -0.14263 -0.31255 -0.93913 255 0 0
-0.058144 -0.0073534 -0.001217 1 0.024847 0.13692 0.99027 255 0 0
-0.055776 -0.0079634 -0.00063695 1 -0.26557 0.33987 0.9022 255 0 0
-0.054312 -0.0077534 -6.9557e-06 1 -0.29783 -0.1658 0.94011 255 0 0
-0.055003 -0.0070934 0.00041305 1 0.056984 -0.52527 0.84902 255 0 0
-0.056091 -0.0072334 0.00038305 1 0.13182 0.49898 0.85653 255 0 0
-0.058585 -0.0082034 -0.00041695 1 0.027276 -0.32616 0.94492 255 0 0
-0.054536 -0.0073634 -0.001157 1 -0.0066954 0.061508 -0.99808 255 0 0
-0.057039 -0.0080434 -0.00057695 1 0.36241 0.12817 0.92316 255 0 0
-0.049188 -0.0076434 -0.00073696 1 0.15809 -0.25004 -0.95524 255 0 0
-0.053124 -0.0074534 -0.001087 1 -0.33152 -0.17094 0.92784 255 0 0
-0.051077 -0.0074634 -0.001047 1 -0.042137 -0.36858 -0.92864 255 0 0
-0.050826 -0.0071334 0.00021304 1 0.02798 -0.21327 0.97659 255 0 0
-0.04888 -0.0070134 0.00019304 1 -0.033124 0.52589 0.84991 255 0 0
-0.053236 -0.0075734 7.3044e-05 1 -0.010069 0.52689 -0.84987 255 0 0
-0.052086 -0.0077334 -0.00077695 1 -0.083955 -0.33644 -0.93795 255 0 0
-0.044082 -0.0074234 -0.00044696 1 0.029413 -0.34116 0.93955 255 0 0
-0.047249 -0.0075934 -0.00068696 1 0.014153 -0.00015335 0.9999 255 0 0
-0.046482 -0.0070834 5.3044e-05 1 0.025033 -0.092141 0.99543 255 0 0
-0.045547 -0.0073934 -0.00090696 1 0.22144 -0.43316 0.87369 255 0 0
-0.046537 -0.0069134 -0.001297 1 -0.025357 -0.36851 -0.92928 255 0 0
-0.039686 -0.0071734 -0.00088696 1 -0.0038969 0.059758 -0.99821 255 0 0
-0.041004 -0.0070034 -0.001157 1 -0.3161 -0.22038 0.92278 255 0 0
-0.041924 -0.0073734 -0.00057696 1 0.029677 0.71046 0.70311 255 0 0
-0.0429 -0.0071534 -0.00013696 1 0.035502 0.30498 0.9517 255 0 0
-0.037412 -0.0071634 -0.00065696 1 -0.24956 0.02407 -0.96806 255 0 0
-0.038644 -0.0071234 -0.00046696 1 0.058169 -0.71228 0.69948 255 0 0
-0.032567 -0.0069034 -0.00067696 1 0.32301 0.58432 -0.74447 255 0 0
-0.13417 -0.0050633 -0.001787 1 0.14606 0.48614 0.86159 255 0 0
-0.13868 -0.0046033 0.001403 1 0.014736 -0.16523 -0.98614 255 0 0
-0.13865 -0.0055233 0.003073 1 0.020314 -0.042348 0.9989 255 0 0
-0.13873 -0.0030434 -0.001737 1 0.22766 -0.42946 0.87392 255 0 0
-0.13871 -0.0031333 -0.00036695 1 0.030237 -0.27813 0.96007 255 0 0
-0.13866 -0.0027433 0.003313 1 -0.15617 0.29595 -0.94235 255 0 0
-0.13871 -0.0042834 -0.00084695 1 -0.011254 0.28186 -0.95939 255 0 0
-0.13653 -0.0040433 0.003283 1 0.037197 -0.38781 0.92099 255 0 0
-0.13767 -0.0034334 -0.001937 1 -0.12582 0.49122 0.8619 255 0 0
-0.13868 -0.0059133 0.001463 1 -0.24438 -0.37154 0.89568 255 0 0
-0.13702 -0.0021933 -0.001987 1 0.029112 0.40701 0.91296 255 0 0
-0.13872 -0.0064634 -0.001467 1 0.026321 -0.01573 0.99953 255 0 0
-0.13869 -0.0030933 0.00087305 1 0.029876 0.10652 0.99386 255 0 0
-0.13746 -0.0051333 0.003203 1 0.22155 -0.41637 0.88179 255 0 0
-0.13696 -0.0044133 -0.001837 1 0.026751 -0.080857 0.99637 255 0 0
-0.13854 -0.0049534 -0.001787 1 -0.11743 0.49444 0.86124 255 0 0
-0.13406 -0.0021933 -0.001997 1 0.0092197 -0.31489 -0.94908 255 0 0
-0.13442 -0.0047333 0.003163 1 0.014157 -0.00014931 0.9999 255 0 0
-0.13401 -0.0027733 0.003313 1 -0.34499 -0.077546 0.9354 255 0 0
-0.13566 -0.0048933 0.003183 1 -0.092253 -0.16661 -0.9817 255 0 0
-0.13515 -0.0023433 -0.001987 1 -0.22902 -0.14396 -0.96272 255 0 0
-0.13521 -0.0040833 -0.001877 1 -0.0094937 0.0045189 -0.99994 255 0 0
-0.13867 -0.0042733 0.002503 1 0.01416 -0.00015389 0.9999 255 0 0
-0.13623 -0.0030633 -0.001957 1 0.29102 -0.3401 0.89423 255 0 0
-0.13563 -0.0029733 0.003353 1 -0.0024058 -0.050285 -0.99873 255 0 0
-0.13612 -0.0063433 0.003033 1 -0.0054989 -0.07324 -0.9973 255 0 0
-0.13699 -0.0025433 0.003393 1 0.31161 0.29079 0.90462 255 0 0
-0.1387 -0.0046333 0.00013305 1 0.0018878 -0.15485 -0.98794 255 0 0
-0.13871 -0.0020033 9.3049e-05 1 -0.99989 -0.0034572 0.014156 255 0 0
-0.1367 -0.0057333 -0.001707 1 0.02245 -0.0049184 0.99974 255 0 0
-0.13733 -0.0067333 0.002993 1 0.45474 -0.54501 -0.7044 255 0 0
-0.13866 -0.0064733 0.002593 1 0.12944 -0.29567 -0.94648 255 0 0
-0.13801 -0.0041533 0.003313 1 0.20168 0.14426 -0.96877 255 0 0
-0.1387 -0.0066833 -0.00044695 1 0.19859 0.44996 0.87069 255 0 0
-0.13565 -0.0064333 -0.001617 1 -0.24322 -0.10885 -0.96384 255 0 0
-0.13792 -0.0058334 -0.001697 1 -0.036972 0.044264 -0.99834 255 0 0
-0.13871 -0.0053934 -0.00076695 1 0.023709 -0.042603 0.99881 255 0 0
-0.13508 -0.0061633 0.003033 1 0.036397 -0.41677 0.90828 255 0 0
-0.13869 -0.0057933 0.00039305 1 0.015838 0.36885 -0.92935 255 0 0
-0.1355 -0.0052333 -0.001767 1 -0.77808 -0.013308 0.62802 255 0 0
-0.13867 -0.0030833 0.002183 1 -0.04214 -0.36858 -0.92864 255 0 0
-0.13456 -0.0032533 -0.001957 1 0.14177 -0.49473 0.8574 255 0 0
-0.13391 -0.0067733 0.002893 1 0.030105 -0.16028 0.98661 255 0 0
-0.13442 -0.0061033 -0.001677 1 0.025477 -0.093021 0.99534 255 0 0
-0.13459 -0.0036533 0.003273 1 0.31256 0.31053 0.89771 255 0 0
-0.13286 -0.0057833 -0.001717 1 -0.20754 0.19598 -0.95839 255 0 0
-0.13106 -0.0025733 0.003253 1 0.02541 -0.1591 0.98694 255 0 0
-0.13151 -0.0049933 -0.001797 1 0.056984 -0.52527 0.84902 255 0 0
-0.12995 -0.0063133 -0.001637 1 -0.0068585 0.1326 -0.99115 255 0 0
-0.13195 -0.0038033 0.003193 1 0.078062 -0.34307 -0.93606 255 0 0
-0.13118 -0.0048833 0.003063 1 -0.19662 0.43287 0.87975 255 0 0
-0.13353 -0.0037533 -0.001917 1 0.027488 0.95745 0.28727 255 0 0
-0.12947 -0.0040733 -0.001887 1 -0.11988 0.33179 -0.93571 255 0 0
-0.13037 -0.0051933 -0.001777 1 0.013133 -0.87515 -0.48367 255 0 0
-0.12913 -0.0050733 -0.001797 1 0.28865 0.34179 0.89435 255 0 0
-0.12924 -0.0023733 0.003213 1 0.028758 0.13365 0.99061 255 0 0
-0.13211 -0.0028233 -0.001977 1 0.25006 -0.3857 0.88809 255 0 0
-0.13305 -0.0034033 0.003263 1 0.37189 0.022892 0.92799 255 0 0
-0.13019 -0.0043333 0.003093 1 0.031901 0.18976 0.98131 255 0 0
-0.13143 -0.0064533 -0.001617 1 0.00059584 -0.35179 -0.93608 255 0 0
-0.13035 -0.0058333 0.002953 1 0.37438 0.05893 0.9254 255 0 0
-0.13106 -0.0039533 -0.001897 1 0.021499 0.34691 0.93765 255 0 0
-0.12909 -0.0053133 0.002973 1 0.017864 0.16433 0.98624 255 0 0
-0.1308 -0.0027933 -0.001987 1 -0.0018847 -0.34066 -0.94018 255 0 0
-0.13358 -0.0053833 0.003083 1 -6.624e-05 0.22517 -0.97432 255 0 0
-0.13199 -0.0055633 0.003023 1 0.025892 -0.071214 0.99713 255 0 0
-0.13075 -0.0068633 0.002783 1 0.049918 -0.69563 0.71666 255 0 0
-0.12933 -0.0029833 -0.001987 1 0.041869 -0.58062 0.8131 255 0 0
-0.13253 -0.0043933 -0.001857 1 -0.044688 0.36864 -0.9285 255 0 0
-0.13001 -0.0032433 0.003193 1 0.17245 -0.22709 -0.95848 255 0 0
-0.13269 -0.0064133 0.002923 1 0.34206 -0.2273 0.91178 255 0 0
-0.12423 -0.0021633 0.003093 1 0.028343 0.38117 0.92407 255 0 0
-0.12795 -0.0061833 -0.001667 1 -0.19039 0.43713 0.87901 255 0 0
-0.12742 -0.0037433 0.003083 1 0.022514 -0.65542 -0.75493 255 0 0
-0.1242 -0.0038033 -0.001927 1 0.13279 -0.29278 -0.94691 255 0 0
-0.12412 -0.0060433 -0.001687 1 -0.032892 0.52504 0.85044 255 0 0
-0.12675 -0.0027433 -0.002007 1 -0.10428 0.34269 -0.93364 255 0 0
-0.12449 -0.0032533 0.003053 1 -0.0034767 -0.032373 -0.99947 255 0 0
-0.12556 -0.0040533 -0.001907 1 0.02635 0.081497 0.99633 255 0 0
-0.12539 -0.0061933 -0.001667 1 0.014155 -0.00015165 0.9999 255 0 0
-0.12514 -0.0051533 -0.001797 1 -0.19361 -0.43458 0.87957 255 0 0
-0.1265 -0.0059233 -0.001717 1 0.050451 -0.39471 0.91742 255 0 0
-0.12627 -0.0061933 0.002783 1 0.11683 0.21346 -0.96994 255 0 0
-0.12412 -0.0059033 0.002773 1 -0.0041674 0.14187 -0.98988 255 0 0
-0.12803 -0.0023533 0.003183 1 -0.21738 0.40912 0.88621 255 0 0
-0.12777 -0.0049933 -0.001807 1 0.023982 -0.12223 0.99221 255 0 0
-0.12483 -0.0027633 -0.002007 1 -0.23002 0.14276 -0.96266 255 0 0
-0.12684 -0.0046833 0.002973 1 0.024516 0.030773 0.99923 255 0 0
-0.12532 -0.0040933 0.002993 1 -0.0025053 -0.097158 -0.99527 255 0 0
-0.12529 -0.0055933 0.002843 1 -0.0098949 -0.045386 -0.99892 255 0 0
-0.12547 -0.0019933 0.003133 1 0.50021 -0.83261 0.2378 255 0 0
-0.12853 -0.0042033 0.003063 1 0.21697 -0.071617 -0.97355 255 0 0
-0.12841 -0.0021433 -0.002017 1 -0.00163 -0.1735 -0.98483 255 0 0
-0.12671 -0.0027233 0.003133 1 0.049683 -0.91359 -0.40359 255 0 0
-0.12827 -0.0036133 -0.001937 1 0.00169 -0.054645 -0.9985 255 0 0
-0.12678 -0.0042133 -0.001887 1 0.014158 -0.00014972 0.9999 255 0 0
-0.12846 -0.0063633 0.002813 1 0.02305 0.10393 0.99432 255 0 0
-0.12767 -0.0056833 0.002903 1 -0.34524 -0.077085 0.93534 255 0 0
-0.12218 -0.0026933 0.003023 1 0.01415 -0.00014744 0.9999 255 0 0
-0.12251 -0.0041233 -0.001907 1 -0.0041812 0.0038075 -0.99998 255 0 0
-0.1188 -0.0026533 -0.002037 1 0.033329 -0.99923 0.020536 255 0 0
-0.12098 -0.0027033 -0.002027 1 -0.00027175 -0.2474 -0.96891 255 0 0
-0.12068 -0.0026933 0.002983 1 -0.26322 -0.34202 0.90207 255 0 0
-0.12282 -0.0057433 0.002773 1 -0.029307 -0.52557 0.85025 255 0 0
-0.11955 -0.0025033 0.002963 1 -0.020527 0.97006 -0.242 255 0 0
-0.12244 -0.0062033 -0.001667 1 0.0024981 -0.54924 -0.83566 255 0 0
-0.11931 -0.0057233 -0.001747 1 0.056987 -0.52527 0.84902 255 0 0
-0.12325 -0.0036133 0.002983 1 0.16337 0.47932 0.8623 255 0 0
-0.11898 -0.0048733 0.002753 1 0.014157 -0.00014946 0.9999 255 0 0
-0.12015 -0.0040033 -0.001917 1 0.093908 0.31993 -0.94278 255 0 0
-0.12348 -0.0047533 0.002883 1 0.056958 -0.52529 0.84901 255 0 0
-0.12215 -0.0030233 -0.002007 1 0.025522 -0.045359 0.99864 255 0 0
-0.12069 -0.0059833 -0.001707 1 0.028221 -0.99367 -0.10874 255 0 0
-0.119 -0.0046833 -0.001857 1 0.016006 -0.85315 0.52142 255 0 0
-0.12273 -0.0068333 0.002573 1 -0.1227 0.543 0.83072 255 0 0
-0.12032 -0.0062733 0.002603 1 0.02463 0.012714 0.99962 255 0 0
-0.11988 -0.0022533 -0.002047 1 0.076445 -0.83389 -0.54661 255 0 0
-0.12134 -0.0040633 -0.001917 1 0.022145 0.15946 0.98696 255 0 0
-0.12197 -0.0052033 -0.001797 1 0.30008 -0.93219 0.20243 255 0 0
-0.12033 -0.0048033 0.002793 1 0.019336 0.36297 -0.9316 255 0 0
-0.12205 -0.0038533 0.002933 1 0.061296 0.49714 0.8655 255 0 0
-0.12098 -0.0039433 0.002893 1 0.014159 -0.00015566 0.9999 255 0 0
-0.12132 -0.0068733 -0.001547 1 0.0035363 -0.23427 -0.97216 255 0 0
-0.12165 -0.0058633 0.002713 1 0.0036171 0.29192 -0.95644 255 0 0
-0.12351 -0.0029033 -0.002007 1 -0.0041116 0.0072439 -0.99997 255 0 0
-0.12342 -0.0047333 -0.001847 1 -0.02027 0.8138 -0.58078 255 0 0
-0.11995 -0.0037133 0.002893 1 -0.15617 0.29594 -0.94235 255 0 0
-0.12213 -0.0048833 0.002833 1 -0.19156 -0.23328 -0.95336 255 0 0
-0.11445 -0.0063733 0.002423 1 -0.90083 0.13203 -0.41362 255 0 0
-0.11585 -0.0038233 0.002773 1 -0.1495 0.30307 -0.94117 255 0 0
-0.11377 -0.0063933 -0.001637 1 0.13834 0.49533 0.85762 255 0 0
-0.11824 -0.0060033 0.002593 1 -0.044691 0.36864 -0.9285 255 0 0
-0.1142 -0.0027533 0.002823 1 -0.026762 0.52575 0.85022 255 0 0
-0.11672 -0.0019533 -0.002067 1 0.024729 -0.075933 0.99681 255 0 0
-0.11672 -0.0023833 0.002903 1 -0.11679 -0.81823 -0.5629 255 0 0
-0.11769 -0.0044033 0.002763 1 0.002577 0.15852 -0.98735 255 0 0
-0.11382 -0.0050333 -0.001837 1 0.015836 0.36885 -0.92935 255 0 0
-0.11566 -0.0055833 -0.001777 1 -0.0087146 -0.30621 0.95192 255 0 0
-0.11758 -0.0031733 0.002883 1 -0.26558 0.33985 0.9022 255 0 0
-0.11874 -0.0035333 0.002873 1 0.21322 0.090647 -0.97279 255 0 0
-0.1161 -0.0035733 -0.001977 1 0.056966 -0.52529 0.84901 255 0 0
-0.118 -0.0062733 -0.001657 1 -0.0083014 -0.012359 -0.99989 255 0 0
-0.11678 -0.0054533 -0.001787 1 0.019087 0.99178 -0.12652 255 0 0
-0.11775 -0.0024233 -0.002047 1 -0.0010214 0.19511 -0.98078 255 0 0
-0.11702 -0.0056333 0.002623 1 0.0023834 -0.34764 -0.93762 255 0 0
-0.11532 -0.0048933 0.002653 1 0.014161 -0.00015767 0.9999 255 0 0
-0.114 -0.0032233 -0.002017 1 0.21882 0.43396 0.87395 255 0 0
-0.11468 -0.0041633 -0.001917 1 0.026131 -0.44677 0.89427 255 0 0
-0.11795 -0.0052233 -0.001807 1 0.025638 -0.037967 0.99895 255 0 0
-0.11401 -0.0038933 0.002723 1 0.031262 -0.20006 0.97928 255 0 0
-0.11571 -0.0020433 0.002883 1 0.060765 -0.35156 -0.93419 255 0 0
-0.11634 -0.0066133 0.002433 1 -0.18675 0.22839 -0.95549 255 0 0
-0.11754 -0.0034933 -0.001977 1 -0.0035768 -0.091069 -0.99584 255 0 0
-0.11802 -0.0019433 0.002943 1 0.027672 0.24396 0.96939 255 0 0
-0.1138 -0.0054133 0.002563 1 0.014151 -0.00015581 0.9999 255 0 0
-0.1155 -0.0026033 -0.002047 1 0.040905 0.30311 0.95208 255 0 0
-0.11665 -0.0046333 0.002713 1 -0.029233 -0.52562 0.85022 255 0 0
-0.10901 -0.0034733 -0.002007 1 0.028023 0.23407 0.97182 255 0 0
-0.1129 -0.0060733 0.002433 1 -0.12225 0.48801 0.86423 255 0 0
-0.11096 -0.0035633 0.002673 1 0.3721 -0.074607 0.92519 255 0 0
-0.11009 -0.0028233 0.002723 1 -0.0061614 0.027425 -0.9996 255 0 0
-0.11143 -0.0040333 -0.001937 1 -9.3833e-05 -0.36249 -0.93199 255 0 0
-0.11274 -0.0022133 0.002803 1 -0.21302 -0.18428 -0.95951 255 0 0
-0.10991 -0.0065133 0.002273 1 0.041038 0.33482 0.94139 255 0 0
-0.11244 -0.0056433 -0.001767 1 0.0064366 -0.35312 -0.93556 255 0 0
-0.10998 -0.0049433 0.002513 1 0.15556 -0.25429 -0.95454 255 0 0
-0.10994 -0.0044533 -0.001907 1 -0.00073755 0.081405 -0.99668 255 0 0
-0.11138 -0.0063133 0.002343 1 -0.32542 0.19738 0.92474 255 0 0
-0.11212 -0.0030033 -0.002037 1 0.022751 -0.027254 0.99937 255 0 0
-0.11044 -0.0025833 -0.002067 1 -0.14878 -0.30408 -0.94096 255 0 0
-0.11052 -0.0066833 -0.001587 1 0.00072965 0.15869 -0.98733 255 0 0
-0.11107 -0.0021033 0.002773 1 -0.12908 0.31892 -0.93895 255 0 0
-0.10983 -0.0038733 0.002613 1 0.017908 -0.541 -0.84083 255 0 0
-0.11149 -0.0050533 0.002543 1 -0.34492 0.033204 -0.93804 255 0 0
-0.11139 -0.0019733 -0.002077 1 -0.20946 0.20645 -0.95578 255 0 0
-0.11086 -0.0053433 -0.001817 1 -0.0040278 -0.13177 -0.99127 255 0 0
-0.11273 -0.0043533 -0.001907 1 0.60422 -0.75783 -0.24621 255 0 0
-0.11206 -0.0040833 0.002653 1 0.014156 -0.00015226 0.9999 255 0 0
-0.109 -0.0029733 0.002683 1 -0.006577 0.15322 -0.98817 255 0 0
-0.11299 -0.0033533 0.002743 1 0.0062956 0.31045 -0.95057 255 0 0
-0.11265 -0.0019833 -0.002077 1 0.014154 -0.00014725 0.9999 255 0 0
-0.11178 -0.0065733 -0.001607 1 0.22143 -0.43491 0.87283 255 0 0
-0.10957 -0.0055533 -0.001787 1 0.0031885 -0.00073051 0.99999 255 0 0
-0.11277 -0.0050333 0.002583 1 0.024083 0.11254 0.99336 255 0 0
-0.10609 -0.0050533 0.002403 1 0.2197 0.039286 -0.97478 255 0 0
-0.10641 -0.0034933 0.002563 1 -0.19972 0.22842 -0.95286 255 0 0
-0.10715 -0.0061233 0.002263 1 0.58013 -0.79093 -0.19461 255 0 0
-0.1038 -0.0037033 0.002473 1 0.054695 -0.96129 -0.27005 255 0 0
-0.10716 -0.0045133 0.002483 1 0.026539 0.019535 0.99946 255 0 0
-0.10835 -0.0063533 -0.001647 1 0.024186 -0.056201 0.99813 255 0 0
-0.10522 -0.0034933 0.002533 1 0.040349 -0.37043 0.92798 255 0 0
-0.10839 -0.0046833 0.002503 1 -0.24563 -0.010141 -0.96931 255 0 0
-0.1084 -0.0059933 0.002323 1 0.029549 0.052849 0.99817 255 0 0
-0.10497 -0.0045233 0.002423 1 0.030361 0.20875 0.9775 255 0 0
-0.10413 -0.0063533 0.002133 1 -0.19663 0.43285 0.87976 255 0 0
-0.10508 -0.0059033 0.002243 1 0.20168 0.14426 -0.96877 255 0 0
-0.10712 -0.0058933 -0.001727 1 -0.002191 -0.057576 -0.99834 255 0 0
-0.10748 -0.0026933 -0.002077 1 -0.18229 -0.43953 0.87953 255 0 0
-0.10479 -0.0059533 -0.001717 1 -0.017644 -0.53328 0.84575 255 0 0
-0.10565 -0.0040033 -0.001957 1 -0.0054792 0.03714 -0.9993 255 0 0
-0.10553 -0.0051833 -0.001847 1 0.024039 0.035398 0.99908 255 0 0
-0.10731 -0.0028633 0.002653 1 0.027967 -0.45646 -0.8893 255 0 0
-0.10861 -0.0047133 -0.001887 1 -0.26416 -0.34307 0.9014 255 0 0
-0.1047 -0.0020733 -0.002107 1 0.025662 -0.74383 0.66788 255 0 0
-0.10684 -0.0042933 -0.001927 1 0.023415 -0.0098394 0.99968 255 0 0
-0.10445 -0.0027533 0.002583 1 0.029565 0.28416 0.95832 255 0 0
-0.10385 -0.0035233 -0.002007 1 -0.0042461 0.2517 -0.9678 255 0 0
-0.1062 -0.0026833 -0.002077 1 0.0032664 0.37175 -0.92833 255 0 0
-0.10778 -0.0037133 -0.001987 1 0.020149 -0.011646 0.99973 255 0 0
-0.10457 -0.0044333 -0.001917 1 -0.094855 -0.34398 -0.93417 255 0 0
-0.10493 -0.0031933 -0.002037 1 0.12738 0.29693 -0.94637 255 0 0
-0.10817 -0.0036633 0.002593 1 -0.2197 -0.16749 -0.96108 255 0 0
-0.10013 -0.0039933 0.002353 1 -0.20347 0.44304 0.87311 255 0 0
-0.10057 -0.0045133 -0.001927 1 -0.0082698 0.030664 -0.9995 255 0 0
-0.099706 -0.0030533 -0.002067 1 0.068547 -0.99339 -0.092063 255 0 0
-0.10103 -0.0065333 0.002013 1 -8.5853e-05 0.98727 -0.15907 255 0 0
-0.10362 -0.0023733 -0.002097 1 -0.10887 0.02243 0.9938 255 0 0
-0.10169 -0.0031133 -0.002057 1 0.015528 -0.26423 0.96434 255 0 0
-0.10217 -0.0059033 -0.001727 1 0.038462 0.26469 0.96357 255 0 0
-0.10021 -0.0051433 0.002243 1 0.029571 -0.19942 0.97947 255 0 0
-0.1014 -0.0048433 0.002303 1 0.16295 0.22427 -0.96081 255 0 0
-0.10345 -0.0052033 -0.001847 1 0.025377 -0.05384 0.99823 255 0 0
-0.099599 -0.0027233 0.002463 1 -0.0024534 -0.10619 -0.99434 255 0 0
-0.10278 -0.0033933 -0.002027 1 -0.1995 0.22737 -0.95315 255 0 0
-0.10306 -0.0051233 0.002323 1 0.028832 -0.37659 0.92593 255 0 0
-0.10142 -0.0037033 0.002413 1 0.0015177 0.20558 -0.97864 255 0 0
-0.10074 -0.0028333 0.002483 1 -0.11743 0.49446 0.86123 255 0 0
-0.099358 -0.0051933 -0.001857 1 -0.0018531 -0.25046 -0.96813 255 0 0
-0.10066 -0.0056833 -0.001767 1 0.013882 0.47096 -0.88204 255 0 0
-0.10262 -0.0045233 -0.001917 1 0.024289 -0.17916 0.98352 255 0 0
-0.10299 -0.0067233 0.002043 1 0.0041088 -0.21241 -0.97717 255 0 0
-0.099002 -0.0058033 0.002093 1 -0.31658 -0.2198 0.92275 255 0 0
-0.10335 -0.0020033 0.002583 1 0.026118 -0.34666 -0.93763 255 0 0
-0.10248 -0.0041133 0.002403 1 -0.22981 -0.14416 -0.9625 255 0 0
-0.10066 -0.0025733 -0.002097 1 0.022979 -0.14497 0.98917 255 0 0
-0.099514 -0.0068233 0.001923 1 -0.0047524 -0.003924 -0.99998 255 0 0
-0.10237 -0.0028733 0.002523 1 -0.99989 -0.0034572 0.014156 255 0 0
-0.099084 -0.0046333 0.002263 1 -0.044689 0.36864 -0.9285 255 0 0
-0.10207 -0.0059433 0.002153 1 0.22144 -0.43315 0.8737 255 0 0
-0.10164 -0.0049633 -0.001877 1 -0.20368 0.19721 -0.95897 255 0 0
-0.098837 -0.0036333 0.002353 1 -0.0035954 0.052396 -0.99862 255 0 0
-0.10239 -0.0021833 -0.002107 1 0.026899 -0.13164 0.99093 255 0 0
-0.098555 -0.0039633 -0.001987 1 0.1373 0.28541 -0.94852 255 0 0
-0.096609 -0.0027733 0.002383 1 0.20964 -0.096397 -0.97301 255 0 0
-0.09376 -0.0042533 -0.001967 1 -0.23134 0.14153 -0.96252 255 0 0
-0.095525 -0.0021433 -0.002137 1 0.34888 0.19441 0.91678 255 0 0
-0.09465 -0.0058933 0.001953 1 0.029486 0.3771 0.9257 255 0 0
-0.098668 -0.0026433 -0.002107 1 0.023913 -0.074879 0.99691 255 0 0
-0.096213 -0.0051733 -0.001857 1 0.024232 0.050171 0.99845 255 0 0
-0.096697 -0.0055033 0.002083 1 -0.99857 -0.024468 -0.047452 255 0 0
-0.094257 -0.0031233 0.002283 1 0.026955 -0.048505 0.99846 255 0 0
-0.097106 -0.0065933 -0.001607 1 -0.10331 0.34394 -0.93329 255 0 0
-0.098733 -0.0060633 -0.001697 1 0.21572 -0.10268 -0.97104 255 0 0
-0.097446 -0.0048633 -0.001897 1 -0.088361 0.34901 -0.93295 255 0 0
-0.095784 -0.0035633 -0.002027 1 -0.083872 -0.011076 -0.99641 255 0 0
-0.094361 -0.0046333 0.002143 1 -0.99989 -0.003457 0.014155 255 0 0
-0.094653 -0.0061933 -0.001677 1 -0.0034851 -0.04581 -0.99894 255 0 0
-0.095765 -0.0066733 0.001843 1 0.014156 -0.00015165 0.9999 255 0 0
-0.095242 -0.0045733 -0.001927 1 0.073601 -0.34465 -0.93584 255 0 0
-0.097893 -0.0046833 0.002233 1 0.13283 0.28612 -0.94894 255 0 0
-0.096393 -0.0042133 0.002233 1 -0.0031931 -0.010812 -0.99994 255 0 0
-0.09765 -0.0060033 0.002023 1 -0.002698 -0.023638 -0.99972 255 0 0
-0.095498 -0.0034933 0.002283 1 -0.0049479 0.0027478 -0.99998 255 0 0
-0.097387 -0.0036633 -0.002017 1 -0.24553 0.048246 -0.96819 255 0 0
-0.095627 -0.0049733 0.002143 1 -0.037683 0.37179 -0.92755 255 0 0
-0.094295 -0.0033233 -0.002057 1 0.071735 0.92358 0.37663 255 0 0
-0.097806 -0.0025733 0.002423 1 -0.31762 0.21783 0.92286 255 0 0
-0.098453 -0.0068833 0.001883 1 -0.26249 0.34375 0.90163 255 0 0
-0.096878 -0.0025733 -0.002117 1 0.0054888 -1.1989e-05 0.99998 255 0 0
-0.091495 -0.0042633 0.002103 1 0.059832 0.52699 0.84776 255 0 0
-0.092569 -0.0024733 0.002303 1 -0.0012626 0.22933 -0.97335 255 0 0
-0.089691 -0.0029833 -0.002097 1 -0.17978 0.68884 -0.70227 255 0 0
-0.089108 -0.0046133 0.002013 1 0.00018737 -0.15362 -0.98813 255 0 0
-0.090125 -0.0054333 0.001913 1 -0.010638 0.67409 -0.73858 255 0 0
-0.092625 -0.0038833 0.002173 1 -0.0045008 0.11669 -0.99316 255 0 0
-0.092276 -0.0043733 -0.001957 1 0.022912 0.013695 0.99964 255 0 0
-0.092393 -0.0049633 0.002063 1 0.13574 0.29283 0.94648 255 0 0
-0.091263 -0.0056533 0.001903 1 -0.0043458 0.032978 -0.99945 255 0 0
-0.093225 -0.0058333 0.001923 1 -0.24519 -0.049556 -0.96821 255 0 0
-0.090995 -0.0027833 0.002233 1 -0.0022913 -0.22032 -0.97542 255 0 0
-0.092013 -0.0027233 -0.002117 1 0.042522 0.33455 0.94142 255 0 0
-0.089492 -0.0042733 -0.001977 1 -0.18159 -0.44239 0.87825 255 0 0
-0.09081 -0.0034633 -0.002047 1 -0.27335 -0.57794 -0.76894 255 0 0
-0.090088 -0.0036333 0.002133 1 -0.032905 0.52503 0.85044 255 0 0
-0.089248 -0.0054133 -0.001817 1 -0.59174 -0.77849 -0.20929 255 0 0
-0.091913 -0.0063133 -0.001657 1 -0.01041 0.49941 0.8663 255 0 0
-0.089061 -0.0062633 0.001733 1 0.014154 -0.00015314 0.9999 255 0 0
-0.089501 -0.0064433 -0.001637 1 0.19022 0.16302 -0.96811 255 0 0
-0.092935 -0.0020733 -0.002147 1 -0.10936 0.49715 0.86075 255 0 0
-0.093308 -0.0055833 -0.001787 1 -0.19662 0.43286 0.87976 255 0 0
-0.089103 -0.0024533 0.002213 1 0.023555 0.10312 0.99439 255 0 0
-0.090558 -0.0057633 -0.001757 1 0.016476 0.97949 0.20084 255 0 0
-0.092947 -0.0035033 -0.002037 1 -0.0071472 0.042657 -0.99906 255 0 0
-0.091658 -0.0067033 0.001723 1 0.13834 0.49533 0.85762 255 0 0
-0.091196 -0.0044333 -0.001957 1 -0.31669 -0.20889 0.92524 255 0 0
-0.089013 -0.0035333 0.002113 1 -0.0070423 -0.10197 -0.99476 255 0 0
-0.08711 -0.0022533 -0.002157 1 -0.00043764 -0.10731 -0.99423 255 0 0
-0.087395 -0.0035333 0.002073 1 0.3696 0.01922 0.92899 255 0 0
-0.086361 -0.0062933 -0.001667 1 -0.0056846 0.34209 -0.93965 255 0 0
-0.087401 -0.0023233 0.002173 1 0.34361 -0.2181 0.91344 255 0 0
-0.085027 -0.0036533 -0.002047 1 -0.32458 0.18756 0.92708 255 0 0
-0.087426 -0.0046733 0.001963 1 -0.00080405 0.17682 -0.98424 255 0 0
-0.087522 -0.0057933 0.001773 1 0.3421 0.22008 0.91353 255 0 0
-0.085845 -0.0025233 0.002133 1 0.33146 -0.24857 0.91013 255 0 0
-0.086895 -0.0067933 0.001573 1 -0.0043114 0.010118 -0.99994 255 0 0
-0.085936 -0.0036433 0.002023 1 0.3215 0.34731 0.88092 255 0 0
-0.084529 -0.0019033 -0.002177 1 -0.19554 0.43459 0.87914 255 0 0
-0.088676 -0.0035633 -0.002047 1 -0.053776 0.36529 -0.92934 255 0 0
-0.084617 -0.0048433 -0.001927 1 0.023057 0.92902 -0.3693 255 0 0
-0.085942 -0.0048233 -0.001927 1 -0.099978 -0.51849 0.84922 255 0 0
-0.087897 -0.0060133 -0.001717 1 0.027625 0.41908 0.90753 255 0 0
-0.083807 -0.0027433 -0.002137 1 -0.0038271 0.061308 -0.99811 255 0 0
-0.085311 -0.0063233 -0.001657 1 0.37157 0.076813 0.92522 255 0 0
-0.086521 -0.0054333 0.001813 1 0.026581 -0.10492 0.99413 255 0 0
-0.083767 -0.0042233 0.001913 1 0.02616 -0.059369 0.99789 255 0 0
-0.085123 -0.0044933 0.001923 1 0.17581 -0.47459 0.86247 255 0 0
-0.086521 -0.0032133 -0.002087 1 -0.042124 -0.36859 -0.92864 255 0 0
-0.087647 -0.0033933 -0.002067 1 0.099181 0.27201 -0.95717 255 0 0
-0.087895 -0.0049833 -0.001897 1 0.096584 -0.44827 0.88867 255 0 0
-0.085439 -0.0056133 0.001753 1 0.056928 -0.52531 0.849 255 0 0
-0.08473 -0.0025033 0.002103 1 0.059377 -0.6722 0.73798 255 0 0
-0.08696 -0.0042333 -0.001987 1 0.025706 0.098174 0.99484 255 0 0
-0.084446 -0.0063233 0.001593 1 0.20415 0.037048 -0.97824 255 0 0
-0.084439 -0.0052933 0.001783 1 0.0011373 -0.21659 -0.97626 255 0 0
-0.085804 -0.0024033 -0.002157 1 0.010443 0.38998 -0.92076 255 0 0
-0.084674 -0.0035433 0.002003 1 0.10249 0.31574 -0.94329 255 0 0
-0.082236 -0.0030333 0.001983 1 -0.75536 -0.14476 0.63912 255 0 0
-0.081499 -0.0043133 -0.001997 1 -0.11403 -0.49561 0.86103 255 0 0
-0.07904 -0.0029133 -0.002137 1 0.15086 0.26736 -0.95171 255 0 0
-0.080735 -0.0025733 0.001993 1 0.10656 -0.51021 0.85342 255 0 0
-0.081721 -0.0021233 -0.002187 1 0.025288 -0.043661 0.99873 255 0 0
-0.081438 -0.0039833 0.001873 1 0.21907 0.04243 -0.97479 255 0 0
-0.083341 -0.0054433 0.001723 1 -0.00097629 -0.1673 -0.98591 255 0 0
-0.080478 -0.0022733 -0.002187 1 -0.19951 0.22736 -0.95315 255 0 0
-0.082632 -0.0034633 -0.002067 1 0.0020996 -0.2078 -0.97817 255 0 0
-0.07977 -0.0033533 0.001893 1 0.0019407 -0.29465 -0.9556 255 0 0
-0.079137 -0.0062533 0.001463 1 -0.34562 -0.021048 0.93814 255 0 0
-0.079103 -0.0048933 -0.001917 1 -0.54762 -0.29525 0.7829 255 0 0
-0.082025 -0.0064233 -0.001647 1 -0.19794 -0.22836 -0.95324 255 0 0
-0.08353 -0.0027233 0.002053 1 0.053346 0.52533 0.84923 255 0 0
-0.080021 -0.0044533 0.001793 1 0.004246 -0.32233 -0.94662 255 0 0
-0.082706 -0.0043833 0.001873 1 0.0069667 -0.32407 -0.94601 255 0 0
-0.080374 -0.0065133 0.001443 1 -0.081185 -0.015559 -0.99658 255 0 0
-0.082304 -0.0062733 0.001543 1 -0.0001304 -0.3807 -0.9247 255 0 0
-0.083589 -0.0042433 -0.001997 1 -0.032784 0.19727 -0.9798 255 0 0
-0.080932 -0.0052333 -0.001857 1 0.023595 0.09033 0.99563 255 0 0
-0.083302 -0.0057133 -0.001767 1 0.025108 0.032135 0.99917 255 0 0
-0.079546 -0.0039333 -0.002037 1 0.032674 0.89633 0.44218 255 0 0
-0.080881 -0.0051333 0.001703 1 -0.19951 0.22737 -0.95315 255 0 0
-0.080542 -0.0033533 -0.002087 1 0.027032 -0.088506 0.99571 255 0 0
-0.078899 -0.0052133 0.001643 1 0.077214 -0.34338 -0.93602 255 0 0
-0.079591 -0.0063733 -0.001657 1 0.087939 -0.24738 0.96492 255 0 0
-0.082028 -0.0052333 0.001723 1 0.056955 0.35149 -0.93446 255 0 0
-0.08217 -0.0053733 -0.001827 1 -0.11402 -0.49561 0.86103 255 0 0
-0.080949 -0.0064233 -0.001647 1 -0.031924 -0.52435 0.85091 255 0 0
-0.082769 -0.0019933 -0.002187 1 0.0091424 0.97304 -0.23046 255 0 0
-0.078687 -0.0027333 0.001923 1 0.002681 0.25938 -0.96577 255 0 0
-0.074196 -0.0066833 -0.001557 1 -0.10332 0.34394 -0.93329 255 0 0
-0.077159 -0.0023033 -0.002197 1 0.18088 -0.20141 -0.96266 255 0 0
-0.077754 -0.0064433 -0.001637 1 -0.00012986 -0.13286 -0.99114 255 0 0
-0.077556 -0.0062033 0.001423 1 0.097705 -0.32261 -0.94147 255 0 0
-0.077823 -0.0019833 0.001953 1 0.03094 -0.78007 -0.62493 255 0 0
-0.077899 -0.0054033 -0.001827 1 -0.0032578 0.066874 -0.99776 255 0 0
-0.077428 -0.0038633 -0.002047 1 -0.34576 0.074335 0.93538 255 0 0
-0.074544 -0.0026133 0.001833 1 0.31025 0.38321 0.87 255 0 0
-0.076169 -0.0031633 -0.002117 1 -0.14329 0.47378 0.86891 255 0 0
-0.075079 -0.0031633 -0.002117 1 -0.19663 0.43285 0.87976 255 0 0
-0.077964 -0.0045133 0.001733 1 -0.34695 0.062671 0.93579 255 0 0
-0.074205 -0.0049633 0.001553 1 -0.19789 0.42472 0.88343 255 0 0
-0.074406 -0.0041833 -0.002027 1 0.06124 0.066344 0.99592 255 0 0
-0.076397 -0.0021933 0.001903 1 -0.23002 0.14276 -0.96266 255 0 0
-0.077162 -0.0031933 0.001843 1 0.20683 -0.044959 -0.97734 255 0 0
-0.075864 -0.0055633 -0.001797 1 0.067659 0.34848 -0.93487 255 0 0
-0.07571 -0.0043533 -0.002007 1 0.080211 -0.57061 0.8173 255 0 0
-0.074738 -0.0065833 0.001253 1 -0.14817 0.49221 0.85777 255 0 0
-0.076528 -0.0063933 0.001363 1 0.17087 0.22865 -0.9584 255 0 0
-0.076346 -0.0050833 0.001593 1 0.031813 0.80719 -0.58943 255 0 0
-0.075217 -0.0055933 0.001463 1 0.057921 -0.64348 0.76327 255 0 0
-0.074775 -0.0037633 0.001723 1 0.020523 0.34096 0.93985 255 0 0
-0.075927 -0.0036933 0.001763 1 -0.0018177 0.088933 -0.99604 255 0 0
-0.076848 -0.0050033 -0.001897 1 0.042075 0.59709 0.80107 255 0 0
-0.073915 -0.0056133 -0.001787 1 0.014158 -0.00015124 0.9999 255 0 0
-0.06947 -0.0054633 0.001333 1 0.024524 0.05342 0.99827 255 0 0
-0.070461 -0.0047433 0.001483 1 -0.0082889 0.02469 0.99966 255 0 0
-0.073147 -0.0041733 0.001643 1 0.021653 -0.07963 0.99659 255 0 0
-0.070816 -0.0033433 -0.002117 1 -0.00088433 0.23302 -0.97247 255 0 0
-0.071488 -0.0020133 -0.002227 1 -0.11743 0.49445 0.86124 255 0 0
-0.070887 -0.0057333 -0.001777 1 0.031423 0.22352 0.97419 255 0 0
-0.069847 -0.0052833 -0.001857 1 0.0038813 0.16049 -0.98703 255 0 0
-0.071728 -0.0038933 -0.002057 1 -0.34451 -0.0035789 0.93878 255 0 0
-0.069036 -0.0062933 -0.001657 1 0.053967 0.54 0.83993 255 0 0
-0.072145 -0.0067733 0.001103 1 0.0041312 -0.13009 -0.99149 255 0 0
-0.070282 -0.0031133 0.001673 1 0.03569 -0.28134 0.95895 255 0 0
-0.068937 -0.0031233 0.001633 1 0.030085 0.85724 0.51403 255 0 0
-0.068985 -0.0024333 -0.002207 1 -0.22641 0.1591 -0.96095 255 0 0
-0.070229 -0.0067133 -0.001527 1 -0.26323 -0.342 0.90208 255 0 0
-0.07139 -0.0026533 0.001743 1 -0.3161 -0.22039 0.92277 255 0 0
-0.07278 -0.0051433 0.001483 1 0.056993 -0.52527 0.84902 255 0 0
-0.072171 -0.0064433 -0.001617 1 0.048 -0.99126 -0.1229 255 0 0
-0.071927 -0.0049533 -0.001907 1 0.025622 0.42026 0.90704 255 0 0
-0.07258 -0.0020933 -0.002217 1 0.015836 0.36885 -0.92936 255 0 0
-0.073347 -0.0064333 0.001253 1 -0.070697 0.097543 -0.99272 255 0 0
-0.06927 -0.0037433 -0.002077 1 0.28866 0.34173 0.89437 255 0 0
-0.070493 -0.0060933 0.001243 1 0.025368 -0.3047 0.95211 255 0 0
-0.071543 -0.0043033 0.001593 1 0.0035379 -0.23961 -0.97086 255 0 0
-0.070863 -0.0045133 -0.001987 1 0.029645 0.26852 0.96282 255 0 0
-0.071661 -0.0055933 0.001373 1 0.28866 0.34175 0.89436 255 0 0
-0.073381 -0.0046333 -0.001967 1 0.024196 0.062569 0.99775 255 0 0
-0.068813 -0.0045233 0.001483 1 -0.90227 0.16378 0.39884 255 0 0
-0.06922 -0.0067833 0.001013 1 -0.18955 -0.43962 0.87796 255 0 0
-0.072862 -0.0055333 -0.001807 1 0.043717 0.50827 0.86009 255 0 0
-0.073734 -0.0027333 -0.002167 1 0.02588 0.19389 0.98068 255 0 0
-0.073031 -0.0027633 0.001773 1 -0.34523 -0.077084 0.93535 255 0 0
-0.072788 -0.0037033 -0.002077 1 0.014976 -0.381 -0.92445 255 0 0
-0.072229 -0.0034433 0.001693 1 0.21844 0.43432 0.87387 255 0 0
-0.065938 -0.0047533 -0.001947 1 -0.0055732 0.20053 -0.97967 255 0 0
-0.067293 -0.0058133 -0.001757 1 0.078282 0.33927 -0.93743 255 0 0
-0.065219 -0.0029933 0.001553 1 0.24761 0.53672 0.80661 255 0 0
-0.067593 -0.0046633 0.001423 1 -0.0013761 0.1598 -0.98715 255 0 0
-0.064439 -0.0038433 -0.002077 1 0.21769 0.04985 -0.97474 255 0 0
-0.063942 -0.0055833 -0.001797 1 0.30187 0.29456 0.9067 255 0 0
-0.065901 -0.0036833 -0.002097 1 -0.11923 -0.3216 -0.93934 255 0 0
-0.067725 -0.0037133 -0.002087 1 0.0086641 -0.64871 0.76099 255 0 0
-0.065832 -0.0043133 0.001433 1 0.014156 -0.0001496 0.9999 255 0 0
-0.064796 -0.0067533 -0.001497 1 0.014155 -0.00015291 0.9999 255 0 0
-0.064954 -0.0060833 0.001083 1 -0.26134 0.3475 0.90052 255 0 0
-0.065949 -0.0067133 -0.001517 1 0.023562 -0.024652 0.99942 255 0 0
-0.064863 -0.0028233 -0.002177 1 0.015836 0.36885 -0.92935 255 0 0
-0.06591 -0.0022933 -0.002227 1 0.014155 -0.00014972 0.9999 255 0 0
-0.068341 -0.0051733 -0.001877 1 -0.32464 0.18852 0.92686 255 0 0
-0.067894 -0.0058933 0.001213 1 -0.16177 0.39859 0.90275 255 0 0
-0.064845 -0.0047233 0.001333 1 -0.23938 -0.36946 0.89789 255 0 0
-0.067396 -0.0036133 0.001553 1 0.027596 -0.24993 0.96787 255 0 0
-0.067076 -0.0021633 0.001673 1 -0.0029332 -0.012046 -0.99992 255 0 0
-0.066932 -0.0028133 -0.002177 1 -0.0024562 0.062054 -0.99807 255 0 0
-0.066522 -0.0030433 0.001583 1 -0.19361 -0.43459 0.87957 255 0 0
-0.067912 -0.0067733 -0.001507 1 -0.0015387 0.13004 -0.99151 255 0 0
-0.066852 -0.0057233 0.001213 1 0.00022797 -0.023012 -0.99974 255 0 0
-0.064015 -0.0037933 0.001443 1 0.033063 -0.54322 0.83894 255 0 0
-0.064253 -0.0025833 0.001563 1 0.013033 0.39298 -0.91945 255 0 0
-0.065449 -0.0056833 -0.001787 1 -0.39257 0.57458 -0.71816 255 0 0
-0.060851 -0.0024334 -0.002227 1 0.082825 -0.96759 0.23857 255 0 0
-0.059686 -0.0059334 0.00096305 1 -0.22903 -0.14396 -0.96272 255 0 0
-0.0628 -0.0068433 0.00078305 1 -0.061382 -0.36307 -0.92974 255 0 0
-0.061193 -0.0041534 -0.002057 1 -0.0045747 0.096897 -0.99528 255 0 0
-0.058773 -0.0046534 0.001173 1 -0.029305 -0.52557 0.85024 255 0 0
-0.061122 -0.0043333 0.001303 1 0.031325 -0.11442 0.99294 255 0 0
-0.062355 -0.0054733 0.001133 1 0.027649 0.19271 0.98087 255 0 0
-0.060759 -0.0064134 0.00085305 1 0.014154 -0.00015143 0.9999 255 0 0
-0.063751 -0.0053233 0.001193 1 0.028127 -0.012194 0.99953 255 0 0
-0.061458 -0.0058933 -0.001747 1 -0.0039788 0.16717 -0.98592 255 0 0
-0.060029 -0.0039734 -0.002077 1 0.21002 0.11189 -0.97127 255 0 0
-0.062735 -0.0059133 -0.001737 1 0.0014834 0.049907 -0.99875 255 0 0
-0.060198 -0.0052834 -0.001857 1 -0.022495 -0.37094 -0.92838 255 0 0
-0.060591 -0.0031134 0.001423 1 -0.23983 0.1269 0.96248 255 0 0
-0.060166 -0.0049134 0.001173 1 0.023168 -0.072772 0.99708 255 0 0
-0.063031 -0.0030933 -0.002157 1 -0.31738 0.21719 0.92309 255 0 0
-0.06285 -0.0047533 -0.001947 1 0.37147 0.06088 0.92645 255 0 0
-0.058895 -0.0030234 -0.002177 1 0.02053 -0.20715 0.97809 255 0 0
-0.060739 -0.0068134 -0.001457 1 0.17245 -0.22708 -0.95849 255 0 0
-0.058984 -0.0067034 -0.001487 1 0.02516 0.0096581 0.99964 255 0 0
-0.058882 -0.0052234 -0.001867 1 -0.022724 0.092182 0.99548 255 0 0
-0.063051 -0.0025133 0.001543 1 -0.0020772 -0.57852 -0.81567 255 0 0
-0.062485 -0.0037833 0.001403 1 0.023048 -0.077643 -0.99671 255 0 0
-0.060131 -0.0021534 0.001503 1 -0.00036048 -0.060154 -0.99819 255 0 0
-0.061901 -0.0031633 -0.002157 1 -0.0038906 -0.076663 -0.99705 255 0 0
-0.05933 -0.0032534 0.001373 1 -0.0043524 0.096856 -0.99529 255 0 0
-0.054791 -0.0026334 -0.002227 1 -0.18374 0.25 -0.95065 255 0 0
-0.055207 -0.0061234 0.00075305 1 -0.046571 0.52146 0.852 255 0 0
-0.053977 -0.0060934 0.00072305 1 -0.99989 -0.0034572 0.014156 255 0 0
-0.057575 -0.0046834 -0.001967 1 -0.0012722 0.10897 -0.99404 255 0 0
-0.058121 -0.0022234 0.001443 1 0.047392 0.59137 0.80501 255 0 0
-0.057757 -0.0033334 0.001323 1 -0.19582 -0.22821 -0.95372 255 0 0
-0.055913 -0.0039734 -0.002087 1 -0.19794 -0.22836 -0.95324 255 0 0
-0.057921 -0.0058234 0.00094305 1 -0.17095 0.26961 -0.94767 255 0 0
-0.05417 -0.0046234 0.001053 1 -0.055061 0.36215 -0.93049 255 0 0
-0.054821 -0.0028334 0.001303 1 0.031012 0.40481 0.91388 255 0 0
-0.056286 -0.0031434 0.001313 1 0.34361 -0.2181 0.91344 255 0 0
-0.058612 -0.0068634 0.00064305 1 0.016488 0.0030772 0.99986 255 0 0
-0.056779 -0.0062434 0.00077305 1 -0.12053 0.3293 -0.9365 255 0 0
-0.056927 -0.0036034 -0.002127 1 -0.0068467 0.028777 -0.99956 255 0 0
-0.055797 -0.0055634 -0.001807 1 0.025701 -0.16736 0.98556 255 0 0
-0.05733 -0.0022434 -0.002257 1 0.026948 -0.31584 0.94843 255 0 0
-0.055874 -0.0027034 -0.002217 1 0.020312 0.10727 0.99402 255 0 0
-0.057767 -0.0057834 -0.001767 1 -0.0039548 0.057503 -0.99834 255 0 0
-0.058705 -0.0040834 -0.002077 1 -0.059033 -0.17001 -0.98367 255 0 0
-0.057188 -0.0050534 0.001063 1 0.014158 -0.00015481 0.9999 255 0 0
-0.055464 -0.0038534 0.001213 1 0.049358 0.47144 0.88052 255 0 0
-0.053994 -0.0063934 -0.001567 1 0.024734 0.23556 0.97155 255 0 0
-0.055246 -0.0066734 -0.001487 1 0.0032536 0.37014 -0.92897 255 0 0
-0.054683 -0.0048734 -0.001937 1 0.0047523 0.0547 0.99849 255 0 0
-0.055804 -0.0051834 0.001003 1 0.0045805 0.19937 -0.97991 255 0 0
-0.049364 -0.0028534 0.001163 1 0.027784 0.23178 0.97237 255 0 0
-0.049149 -0.0058334 0.00065304 1 0.07447 0.34455 -0.93581 255 0 0
-0.050081 -0.0050934 -0.001897 1 -0.34276 0.046392 0.93828 255 0 0
-0.052812 -0.0062534 -0.001607 1 0.78494 -0.14384 0.60264 255 0 0
-0.051251 -0.0042234 0.001043 1 -0.0056627 -0.056212 -0.9984 255 0 0
-0.051039 -0.0021434 0.001273 1 0.0057614 -0.41725 -0.90877 255 0 0
-0.053038 -0.0027534 -0.002217 1 0.2176 0.048484 -0.97483 255 0 0
-0.051445 -0.0058834 0.00071304 1 0.16064 -0.25763 -0.9528 255 0 0
-0.051614 -0.0030434 0.001193 1 0.024168 -0.056262 0.99812 255 0 0
-0.053574 -0.0031934 0.001233 1 0.024551 -0.018541 0.99953 255 0 0
-0.05183 -0.0058334 -0.001727 1 0.032899 0.33691 0.94096 255 0 0
-0.04975 -0.0023234 -0.002267 1 -0.0055327 0.11815 -0.99298 255 0 0
-0.053521 -0.0050434 -0.001907 1 0.32213 0.2465 0.91404 255 0 0
-0.053679 -0.0037534 -0.002117 1 0.0071095 0.36787 -0.92985 255 0 0
-0.051944 -0.0046934 -0.001967 1 0.18348 -0.18506 -0.96545 255 0 0
-0.051125 -0.0028334 -0.002217 1 -0.003569 0.098786 -0.9951 255 0 0
-0.053133 -0.0043934 0.001063 1 0.17532 0.20818 -0.96225 255 0 0
-0.052997 -0.0055034 0.00086304 1 0.22173 -0.012989 -0.97502 255 0 0
-0.050515 -0.0050734 0.00087304 1 0.37208 -0.042961 0.92721 255 0 0
-0.053387 -0.0021134 0.001333 1 0.02759 0.21282 0.9767 255 0 0
-0.052053 -0.0068034 0.00045305 1 -0.003756 -0.13833 -0.99038 255 0 0
-0.049172 -0.0039334 0.001043 1 0.25715 -0.39145 0.88354 255 0 0
-0.049346 -0.0063734 -0.001547 1 0.027044 -0.21464 0.97632 255 0 0
-0.05068 -0.0062734 -0.001587 1 0.16685 -0.32913 0.92943 255 0 0
-0.050539 -0.0038634 -0.002117 1 -0.029294 -0.52558 0.85024 255 0 0
-0.05204 -0.0034234 -0.002157 1 0.0018578 -0.1839 -0.98294 255 0 0
-0.050551 -0.0033134 0.001143 1 0.34361 -0.2181 0.91344 255 0 0
-0.044873 -0.0035834 -0.002157 1 0.001781 -0.092231 -0.99574 255 0 0
-0.048523 -0.0052034 -0.001877 1 0.023952 0.049286 0.9985 255 0 0
-0.046208 -0.0056134 0.00062304 1 0.02448 -0.15202 0.98807 255 0 0
-0.044606 -0.0055534 0.00059304 1 0.0092709 0.54719 -0.83696 255 0 0
-0.044548 -0.0025534 0.001063 1 0.29102 -0.3401 0.89423 255 0 0
-0.048745 -0.0041634 -0.002067 1 -0.0032405 -0.092049 -0.99575 255 0 0
-0.044319 -0.0046034 -0.001987 1 -0.34722 -0.046655 0.93662 255 0 0
-0.047705 -0.0036434 0.001043 1 -0.74126 -0.38671 -0.54862 255 0 0
-0.04708 -0.0041834 -0.002057 1 9.0359e-05 0.3977 -0.91751 255 0 0
-0.045834 -0.0044434 -0.002017 1 0.026526 -0.16018 0.98673 255 0 0
-0.04395 -0.0065834 0.00023304 1 0.017177 0.6539 -0.75639 255 0 0
-0.045641 -0.0019934 -0.002307 1 -0.11743 0.49445 0.86124 255 0 0
-0.047507 -0.0031034 -0.002197 1 0.022437 -0.083637 0.99624 255 0 0
-0.047674 -0.0054834 0.00071304 1 0.027607 -0.048142 0.99846 255 0 0
-0.046012 -0.0033834 0.001023 1 0.015198 0.36357 -0.93144 255 0 0
-0.045325 -0.0060034 -0.001647 1 0.033413 -0.26 0.96503 255 0 0
-0.047369 -0.0066234 0.00035304 1 0.18999 -0.18199 -0.96477 255 0 0
-0.04424 -0.0038834 0.00091304 1 -0.00067508 0.015825 -0.99987 255 0 0
-0.048664 -0.0025834 -0.002247 1 0.058189 0.34779 0.93577 255 0 0
-0.046516 -0.0055434 -0.001797 1 0.014153 -0.00014975 0.9999 255 0 0
-0.046375 -0.0045034 0.00086304 1 0.074471 0.34455 -0.93581 255 0 0
-0.043988 -0.0058834 -0.001677 1 -0.17994 0.25662 -0.94961 255 0 0
-0.045111 -0.0046534 0.00079304 1 0.031601 -0.27276 0.96156 255 0 0
-0.047203 -0.0019234 -0.002317 1 0.026863 0.13991 0.9898 255 0 0
-0.047005 -0.0025334 0.001133 1 0.0085413 0.023167 0.9997 255 0 0
-0.04775 -0.0068334 -0.001357 1 0.023225 0.10354 0.99435 255 0 0
-0.045314 -0.0066834 0.00023304 1 -0.0057731 -0.24641 -0.96915 255 0 0
-0.046288 -0.0031434 -0.002197 1 0.20169 0.14425 -0.96877 255 0 0
-0.044516 -0.0068234 -0.001307 1 -0.0043041 0.096926 -0.99528 255 0 0
-0.04572 -0.0023834 0.001113 1 -0.22779 -0.14755 -0.96247 255 0 0
-0.040045 -0.0032934 -0.002197 1 0.068153 -0.34446 -0.93632 255 0 0
-0.038877 -0.0062334 0.00019304 1 0.21846 0.43428 0.87389 255 0 0
-0.040614 -0.0066234 6.3042e-05 1 0.026765 0.2603 0.96516 255 0 0
-0.042624 -0.0066134 -0.001407 1 0.014157 -0.00015486 0.9999 255 0 0
-0.043444 -0.0056334 0.00052304 1 0.036125 0.79717 -0.60268 255 0 0
-0.041807 -0.0050734 0.00063304 1 0.045845 -0.88071 -0.47142 255 0 0
-0.040707 -0.0049834 0.00061304 1 -0.0054466 -0.0036778 -0.99998 255 0 0
-0.043271 -0.0042534 -0.002047 1 0.064328 -0.83965 0.53931 255 0 0
-0.043702 -0.0019034 -0.002327 1 0.021503 0.48451 0.87452 255 0 0
-0.043458 -0.0025334 0.001033 1 0.29844 0.18433 0.93646 255 0 0
-0.039317 -0.0052234 0.00052304 1 0.00068714 -0.060647 -0.99816 255 0 0
-0.042235 -0.0062834 0.00029304 1 -0.05083 0.3649 -0.92966 255 0 0
-0.043459 -0.0031034 -0.002207 1 -0.0040988 -0.13029 -0.99147 255 0 0
-0.041621 -0.0022434 0.001013 1 -0.16283 -0.29285 -0.94219 255 0 0
-0.040369 -0.0060834 -0.001607 1 0.013384 -0.032865 0.99937 255 0 0
-0.043185 -0.0036334 0.00092304 1 0.0066027 0.56818 0.82288 255 0 0
-0.039312 -0.0041234 -0.002077 1 0.024752 -0.029861 0.99925 255 0 0
-0.039026 -0.0033134 0.00084304 1 0.023209 -0.083047 0.99628 255 0 0
-0.039929 -0.0039034 0.00078304 1 0.027982 0.38233 0.9236 255 0 0
-0.042117 -0.0046034 -0.001987 1 -0.04214 -0.36858 -0.92864 255 0 0
-0.040547 -0.0024434 0.00097304 1 0.074471 0.34455 -0.93581 255 0 0
-0.04285 -0.0055234 -0.001787 1 -0.22903 -0.14395 -0.96272 255 0 0
-0.041373 -0.0031034 -0.002217 1 0.056989 -0.52527 0.84902 255 0 0
-0.041656 -0.0055234 -0.001777 1 0.21512 -0.083827 -0.97298 255 0 0
-0.038819 -0.0022034 -0.002307 1 -0.1698 -0.2732 -0.94685 255 0 0
-0.04031 -0.0021434 -0.002307 1 -0.0017033 0.0054697 -0.99998 255 0 0
-0.040782 -0.0044034 -0.002027 1 0.014156 -0.00015282 0.9999 255 0 0
-0.040992 -0.0035434 0.00087304 1 0.025347 0.03943 0.9989 255 0 0
-0.039403 -0.0055934 -0.001747 1 0.15656 0.25148 -0.95512 255 0 0
-0.042022 -0.0037434 0.00087304 1 -0.067341 -0.51214 0.85626 255 0 0
-0.042394 -0.0035934 -0.002167 1 -0.0038776 -0.089296 -0.996 255 0 0
-0.038131 -0.0066434 -0.001317 1 0.29102 -0.3401 0.89422 255 0 0
-0.035752 -0.0024634 -0.002287 1 -0.0049896 0.024131 -0.9997 255 0 0
-0.034924 -0.0037934 -0.002137 1 0.37652 -0.03144 0.92588 255 0 0
-0.036829 -0.0035734 -0.002177 1 0.025025 -0.058801 0.99796 255 0 0
-0.034102 -0.0055134 0.00026304 1 -0.23827 -0.078336 -0.96803 255 0 0
-0.037612 -0.0044334 -0.002017 1 0.029801 0.094008 0.99513 255 0 0
-0.03696 -0.0060634 0.00018304 1 0.13706 -0.28795 -0.94779 255 0 0
-0.035063 -0.0064434 -0.001387 1 -0.0038068 0.13478 -0.99087 255 0 0
-0.035077 -0.0050434 -0.001897 1 0.037859 0.45243 0.891 255 0 0
-0.037892 -0.0051534 0.00049304 1 0.027733 -0.21506 0.97621 255 0 0
-0.037003 -0.0054734 -0.001777 1 0.013199 -0.041485 0.99905 255 0 0
-0.034729 -0.0027534 0.00079304 1 -0.19663 0.43285 0.87976 255 0 0
-0.033879 -0.0030034 -0.002237 1 0.17347 0.13503 -0.97554 255 0 0
-0.036147 -0.0064834 -0.001387 1 -0.0024339 0.0054567 -0.99998 255 0 0
-0.035654 -0.0022234 0.00086304 1 0.069875 0.9351 -0.34742 255 0 0
-0.035244 -0.0038534 0.00066304 1 0.00093948 -0.20336 -0.9791 255 0 0
-0.034392 -0.0045234 0.00052304 1 0.12944 -0.29567 -0.94648 255 0 0
-0.036219 -0.0052734 0.00040304 1 -0.0026336 -0.44432 -0.89586 255 0 0
-0.036505 -0.0035934 0.00075304 1 0.024189 -0.36626 -0.9302 255 0 0
-0.033939 -0.0057734 -0.001677 1 -0.0026719 -0.1359 -0.99072 255 0 0
-0.03378 -0.0068634 -0.001007 1 0.033428 -0.24195 0.96971 255 0 0
-0.03836 -0.0031934 -0.002207 1 0.026346 -0.0085153 0.99962 255 0 0
-0.038055 -0.0056334 -0.001737 1 0.059683 0.35091 -0.9345 255 0 0
-0.03676 -0.0025034 0.00086304 1 0.20267 -0.14247 -0.96883 255 0 0
-0.034796 -0.0068334 -0.00032696 1 -0.0030771 0.14213 -0.98984 255 0 0
-0.036206 -0.0045234 -0.002007 1 0.025274 0.091549 0.99548 255 0 0
-0.037869 -0.0029934 0.00085304 1 0.071631 0.24948 0.96573 255 0 0
-0.035475 -0.0060134 0.00015304 1 0.0043849 0.22328 -0.97474 255 0 0
-0.038016 -0.0041034 0.00070304 1 0.028379 0.056781 0.99798 255 0 0
-0.036231 -0.0067434 -0.00019696 1 0.023546 -0.052668 0.99833 255 0 0
-0.031844 -0.0063434 -0.001397 1 -0.0030118 -0.019705 -0.9998 255 0 0
-0.02906 -0.0042134 0.00043304 1 0.026935 0.23553 0.97149 255 0 0
-0.029368 -0.0054934 0.00011304 1 0.04468 -0.50878 0.85973 255 0 0
-0.03112 -0.0034634 -0.002197 1 -0.23002 0.14276 -0.96266 255 0 0
-0.032595 -0.0039134 -0.002117 1 0.0024238 0.2282 -0.97361 255 0 0
-0.032445 -0.0053734 0.00025304 1 0.025491 -0.026883 0.99931 255 0 0
-0.033429 -0.0041234 0.00056304 1 0.024616 -0.049596 0.99847 255 0 0
-0.033205 -0.0048334 -0.001947 1 0.81307 0.49592 0.30494 255 0 0
-0.032884 -0.0023134 -0.002307 1 0.023379 -0.058729 0.998 255 0 0
-0.032157 -0.0026134 0.00074304 1 0.076332 0.0047168 0.99707 255 0 0
-0.030911 -0.0052534 -0.001817 1 -0.0031522 0.032811 -0.99946 255 0 0
-0.029287 -0.0027534 0.00065304 1 0.32509 0.50911 0.79695 255 0 0
-0.030911 -0.0052034 0.00025304 1 0.010714 -0.33203 -0.94321 255 0 0
-0.02996 -0.0048234 -0.001947 1 0.035615 -0.32212 0.94603 255 0 0
-0.03096 -0.0063534 -0.00019696 1 -0.32732 -0.20942 0.92142 255 0 0
-0.031158 -0.0036334 0.00059304 1 0.17072 0.22917 -0.9583 255 0 0
-0.030557 -0.0026134 0.00069304 1 -0.070128 0.33937 0.93804 255 0 0
-0.031621 -0.0024434 -0.002297 1 -0.10495 0.50351 0.85759 255 0 0
-0.032335 -0.0036534 0.00062304 1 0.1485 -0.2684 -0.95179 255 0 0
-0.029872 -0.0063234 -0.001377 1 0.22144 -0.43315 0.8737 255 0 0
-0.028994 -0.0027834 -0.002277 1 0.025657 -0.42565 0.90452 255 0 0
-0.032202 -0.0051334 -0.001857 1 0.0046912 -0.2319 -0.97273 255 0 0
