ply
format ascii 1.0
comment author Paulo Abelha (p.abelha at abdn ac uk)
element vertex 708
property float x
property float y
property float z
property int segm
property float nx
property float ny
property float nz
property uchar red
property uchar green
property uchar blue
end_header
-0.042494 0.0032884 0.0013471 2 0.035613 -0.0039036 0.99936 0 255 0
-0.042144 0.0034883 0.0063341 2 -0.035612 0.0039037 -0.99936 0 255 0
-0.044094 0.0067584 0.0014181 2 0.035612 -0.0039037 0.99936 0 255 0
-0.038214 0.0071284 0.0012101 2 0.035613 -0.0039034 0.99936 0 255 0
-0.041384 0.0025983 0.0063031 2 0.41616 0.77824 -0.47027 0 255 0
-0.036614 0.0074284 0.0061521 2 -0.027014 0.31695 -0.94806 0 255 0
-0.041424 0.0025984 0.0013061 2 -0.0048391 0.17749 -0.98411 0 255 0
-0.039394 0.0062784 0.0012481 2 0.03561 -0.0039036 0.99936 0 255 0
-0.040574 0.0068183 0.0062911 2 0.041603 0.99913 0.0024168 0 255 0
-0.036844 0.0060884 0.0061551 2 -0.012831 0.62686 0.77903 0 255 0
-0.037954 0.0030683 0.0061831 2 -0.35182 0.33876 -0.87262 0 255 0
-0.040814 0.0039283 0.0062881 2 -0.035611 0.0039029 -0.99936 0 255 0
-0.036454 0.0040784 0.0061331 2 0.38706 0.51205 -0.76681 0 255 0
-0.039674 0.0052883 0.0062531 2 0.035614 -0.0039031 0.99936 0 255 0
-0.036744 0.0053884 0.0011501 2 -0.035612 0.0039039 -0.99936 0 255 0
-0.039124 0.0032683 0.0062251 2 0.12665 0.70482 -0.69799 0 255 0
-0.038214 0.0067883 0.0062071 2 0.16627 -0.95908 0.22916 0 255 0
-0.038454 0.0048283 0.0062081 2 0.035612 -0.003903 0.99936 0 255 0
-0.041054 0.0057784 0.0013061 2 -0.48497 -0.48158 -0.72999 0 255 0
-0.037544 0.0033384 0.0011711 2 0.035611 -0.003904 0.99936 0 255 0
-0.039704 0.0045384 0.0012531 2 0.028131 -0.057423 0.99795 0 255 0
-0.038724 0.0038484 0.0012151 2 0.64354 -0.33924 -0.68612 0 255 0
-0.037954 0.0053684 0.0011931 2 -0.012325 -0.18294 -0.98305 0 255 0
-0.039794 0.0031184 0.0012501 2 -0.62031 0.62374 -0.47558 0 255 0
-0.039384 0.0066183 0.0062481 2 0.035612 -0.0039037 0.99936 0 255 0
-0.034044 0.0032484 0.0060441 2 0.035612 -0.0039037 0.99936 0 255 0
-0.031724 0.0069084 0.0059761 2 -0.26319 0.15101 -0.95285 0 255 0
-0.035284 0.0043884 0.0010951 2 0.3768 -0.073227 -0.92339 0 255 0
-0.035294 0.0056484 0.0060981 2 0.035612 -0.0039024 0.99936 0 255 0
-0.034754 0.0055484 0.0010801 2 0.035612 -0.0039028 0.99936 0 255 0
-0.035884 0.0066884 0.0011251 2 0.035612 -0.0039037 0.99936 0 255 0
-0.032234 0.0024984 0.00097907 2 0.035612 -0.0039037 0.99936 0 255 0
-0.034334 0.0035984 0.0010581 2 0.31307 0.61072 -0.72733 0 255 0
-0.036144 0.0027284 0.0061171 2 -0.68584 -0.72485 -0.065007 0 255 0
-0.035234 0.0034984 0.0060881 2 0.49642 0.38402 -0.77852 0 255 0
-0.033064 0.0049184 0.0010171 2 -0.96532 0.24744 -0.083242 0 255 0
-0.031784 0.0041584 0.00096908 2 -0.035612 0.0039037 -0.99936 0 255 0
-0.033464 0.0072684 0.0060391 2 0.46829 0.87361 -0.13231 0 255 0
-0.033334 0.0048584 0.0060251 2 -0.035612 0.0039037 -0.99936 0 255 0
-0.033274 0.0061084 0.0060281 2 -0.035612 0.0039037 -0.99936 0 255 0
-0.034664 0.0067984 0.0010821 2 -0.22217 0.63513 -0.73976 0 255 0
-0.032174 0.0066084 0.00099207 2 -0.16205 -0.98677 -0.0043815 0 255 0
-0.036084 0.0034984 0.0011191 2 0.0072887 -0.14814 -0.98894 0 255 0
-0.032764 0.0025784 0.0059961 2 0.035612 -0.0039026 0.99936 0 255 0
-0.031834 0.0056884 0.0059751 2 0.035612 -0.0039037 0.99936 0 255 0
-0.033354 0.0060384 0.0010321 2 -0.4649 -0.44956 -0.76274 0 255 0
-0.032444 0.0040684 0.0059901 2 -0.16722 0.98587 0.0098102 0 255 0
-0.034664 0.0071984 0.0060821 2 0.51999 -0.30027 -0.79966 0 255 0
-0.034654 0.0045084 0.0060711 2 -0.058257 -0.087256 -0.99448 0 255 0
-0.029714 0.0042684 0.0058941 2 -0.076266 -0.62058 -0.78043 0 255 0
-0.027184 0.0025684 0.00079907 2 0.40799 0.38365 -0.82847 0 255 0
-0.027034 0.0051984 0.00080407 2 0.035613 -0.0039044 0.99936 0 255 0
-0.030094 0.0069684 0.00092007 2 -0.035612 0.0039035 -0.99936 0 255 0
-0.029104 0.0031184 0.00086908 2 -0.58996 0.31737 -0.74245 0 255 0
-0.031124 0.0040584 0.0059431 2 0.035612 -0.0039042 0.99936 0 255 0
-0.028824 0.0065884 0.0058711 2 -0.76455 -0.4298 -0.48035 0 255 0
-0.031184 0.0026784 0.0059401 2 -0.063168 0.99798 0.0061484 0 255 0
-0.029654 0.0057384 0.0058981 2 0.035612 -0.0039037 0.99936 0 255 0
-0.027224 0.0024984 0.0057981 2 0.075608 -0.95503 0.28669 0 255 0
-0.027274 0.0053484 0.0058111 2 -0.035612 0.0039037 -0.99936 0 255 0
-0.028514 0.0053784 0.0058551 2 -0.1903 0.97771 -0.088658 0 255 0
-0.027884 0.0036984 0.00082808 2 0.13759 0.99049 -0.0013394 0 255 0
-0.027364 0.0074184 0.00082407 2 -0.035612 0.0039041 -0.99936 0 255 0
-0.027544 0.0066184 0.0058261 2 -0.035612 0.0039043 -0.99936 0 255 0
-0.026564 0.0073384 0.0057941 2 0.035611 -0.0039048 0.99936 0 255 0
-0.029224 0.0048084 0.00088007 2 0.18079 0.68987 -0.70099 0 255 0
-0.026674 0.0043384 0.0057861 2 -0.064591 -0.32639 -0.94303 0 255 0
-0.030844 0.0059884 0.00094307 2 -0.017783 0.99846 0.05254 0 255 0
-0.028994 0.0064584 0.00087807 2 -0.035612 0.003904 -0.99936 0 255 0
-0.028004 0.0039584 0.0058321 2 -0.0081078 0.051201 -0.99866 0 255 0
-0.028564 0.0029284 0.0058481 2 -0.95713 -0.18032 -0.22667 0 255 0
-0.028024 0.0057984 0.00084107 2 0.094222 0.04238 0.99465 0 255 0
-0.030344 0.0070184 0.0059271 2 0.035611 -0.0039029 0.99936 0 255 0
-0.030314 0.0037684 0.00091508 2 -0.13001 -0.97583 -0.17563 0 255 0
-0.029794 0.0031084 0.0058921 2 0.035613 -0.0039046 0.99936 0 255 0
-0.030684 0.0051684 0.0059321 2 0.03561 -0.0039036 0.99936 0 255 0
-0.030994 0.0026684 0.00093507 2 -0.035611 0.0039038 -0.99936 0 255 0
-0.025984 0.0026584 0.0057551 2 -0.035611 0.0039039 -0.99936 0 255 0
-0.024574 0.0033684 0.0057071 2 0.035611 -0.0039039 0.99936 0 255 0
-0.022884 0.0061084 0.00065907 2 0.16903 -0.98561 -0.0020062 0 255 0
-0.025724 0.0065784 0.00076207 2 0.89095 -0.45341 -0.025083 0 255 0
-0.022374 0.0051884 0.0056361 2 0.0020402 -0.64859 -0.76114 0 255 0
-0.022604 0.0043284 0.00064207 2 0.035613 -0.0039037 0.99936 0 255 0
-0.024234 0.0049484 0.0057011 2 -0.065858 0.90356 -0.42337 0 255 0
-0.022774 0.0038084 0.0056451 2 0.39097 -0.53029 -0.75229 0 255 0
-0.021464 0.0042784 0.0056001 2 -0.035612 0.0039037 -0.99936 0 255 0
-0.023544 0.0034384 0.00067207 2 -0.035611 0.0039029 -0.99936 0 255 0
-0.025404 0.0049684 0.0057431 2 -0.035612 0.0039034 -0.99936 0 255 0
-0.024664 0.0052184 0.00071907 2 -0.035612 0.0039037 -0.99936 0 255 0
-0.025604 0.0045184 0.00075007 2 -0.035612 0.0039036 -0.99936 0 255 0
-0.025394 0.0063184 0.0057481 2 -0.17282 0.68103 -0.71157 0 255 0
-0.023144 0.0025084 0.0056531 2 0.035611 -0.0039024 0.99936 0 255 0
-0.025884 0.0033784 0.00075607 2 0.035612 -0.0039037 0.99936 0 255 0
-0.024544 0.0040384 0.00071007 2 -0.16722 0.98587 0.0098107 0 255 0
-0.021954 0.0071784 0.00063007 2 -0.036826 -0.99812 -0.04894 0 255 0
-0.023884 0.0063484 0.0056941 2 -0.023912 -0.99971 -0.0030519 0 255 0
-0.023294 0.0073584 0.00067907 2 -0.035612 0.0039042 -0.99936 0 255 0
-0.022384 0.0065184 0.0056411 2 -0.30355 0.85243 -0.4257 0 255 0
-0.024114 0.0062784 0.00070407 2 0.044348 0.99269 0.11221 0 255 0
-0.020534 0.0053284 0.0055711 2 0.59068 0.33782 -0.73278 0 255 0
-0.017734 0.0056184 0.00047407 2 -0.035613 0.0039026 -0.99936 0 255 0
-0.021114 0.0064884 0.0055961 2 -0.035611 0.0039042 -0.99936 0 255 0
-0.018064 0.0049184 0.0054811 2 0.37754 -0.062171 -0.9239 0 255 0
-0.019924 0.0038584 0.0055441 2 -0.036009 -0.016088 -0.99922 0 255 0
-0.016554 0.0053584 0.00043107 2 -0.035612 0.0039037 -0.99936 0 255 0
-0.018074 0.0063184 0.0054871 2 -0.035611 0.0039036 -0.99936 0 255 0
-0.016624 0.0036084 0.0054251 2 0.011016 -0.99993 -0.0042999 0 255 0
-0.021404 0.0046484 0.00060107 2 -0.035612 0.0039037 -0.99936 0 255 0
-0.018664 0.0029184 0.00049707 2 -0.035612 0.0039027 -0.99936 0 255 0
-0.016434 0.0065084 0.0054291 2 -0.035612 0.0039037 -0.99936 0 255 0
-0.017684 0.0026184 0.0054591 2 -0.14537 0.97256 -0.18163 0 255 0
-0.020024 0.0046784 0.00055207 2 -0.035612 0.0039041 -0.99936 0 255 0
-0.021104 0.0062784 0.00059707 2 -0.13074 -0.99137 0.009348 0 255 0
-0.021414 0.0028684 0.00059407 2 -0.078495 -0.59081 -0.80298 0 255 0
-0.017474 0.0069584 0.00047007 2 -0.035612 0.003904 -0.99936 0 255 0
-0.020294 0.0034284 0.00055707 2 0.035612 -0.0039037 0.99936 0 255 0
-0.017464 0.0034184 0.00045607 2 0.035613 -0.0039035 0.99936 0 255 0
-0.019264 0.0065884 0.0055311 2 0.066216 -0.017508 -0.99765 0 255 0
-0.019244 0.0070784 0.00053407 2 0.035612 -0.0039028 0.99936 0 255 0
-0.019164 0.0056384 0.00052507 2 0.038969 0.99921 -0.0074211 0 255 0
-0.018264 0.0036684 0.0054841 2 -0.4468 -0.65086 -0.6138 0 255 0
-0.018294 0.0043084 0.00048907 2 -0.035611 0.0039039 -0.99936 0 255 0
-0.019244 0.0028184 0.0055151 2 -0.035612 0.0039037 -0.99936 0 255 0
-0.019314 0.0049084 0.0055261 2 -0.081056 0.71209 -0.69739 0 255 0
-0.014544 0.0066784 0.0053631 2 -0.27271 0.43299 -0.85916 0 255 0
-0.015764 0.0025484 0.00039206 2 0.035612 -0.0039037 0.99936 0 255 0
-0.014874 0.0062284 0.00037507 2 -0.035611 0.0039034 -0.99936 0 255 0
-0.015124 0.0054584 0.0053791 2 -0.78252 -0.61846 -0.071871 0 255 0
-0.012264 0.0057984 0.0052781 2 -0.030614 -0.0075661 -0.9995 0 255 0
-0.012464 0.0041784 0.00028107 2 -0.11205 -0.78801 -0.60538 0 255 0
-0.011894 0.0054284 0.00026507 2 0.035612 -0.0039038 0.99936 0 255 0
-0.013764 0.0032184 0.0053211 2 -0.035612 0.003904 -0.99936 0 255 0
-0.011804 0.0026184 0.00025107 2 0.075048 0.054096 0.99571 0 255 0
-0.015034 0.0032284 0.0053671 2 -0.035611 0.0039037 -0.99936 0 255 0
-0.013184 0.0070884 0.0053161 2 -0.075732 0.55422 -0.82892 0 255 0
-0.014824 0.0041484 0.00036407 2 0.43401 -0.47945 -0.76274 0 255 0
-0.014294 0.0026584 0.00034007 2 -0.035612 0.0039037 -0.99936 0 255 0
-0.015744 0.0074584 0.0054091 2 -0.035612 0.0039047 -0.99936 0 255 0
-0.015744 0.0072384 0.00040907 2 -0.79489 -0.6043 -0.054569 0 255 0
-0.013284 0.0051084 0.0053121 2 0.035612 -0.0039043 0.99936 0 255 0
-0.012044 0.0038984 0.0052631 2 0.035612 -0.0039037 0.99936 0 255 0
-0.013634 0.0048184 0.00032507 2 0.44841 0.10136 -0.88806 0 255 0
-0.016314 0.0050984 0.0054201 2 0.035613 -0.0039035 0.99936 0 255 0
-0.013454 0.0060184 0.00032307 2 -0.035612 0.0039037 -0.99936 0 255 0
-0.012624 0.0069184 0.00029707 2 -0.035612 0.0039036 -0.99936 0 255 0
-0.013114 0.0029984 0.00029907 2 0.011018 -0.99993 -0.004296 0 255 0
-0.014144 0.0073584 0.00035307 2 0.035612 -0.0039037 0.99936 0 255 0
-0.016304 0.0036884 0.00041507 2 -0.035611 0.0039047 -0.99936 0 255 0
-0.010104 0.0038684 0.00019507 2 0.035611 -0.0039047 0.99936 0 255 0
-0.010554 0.0054484 0.0052161 2 0.035612 -0.0039037 0.99936 0 255 0
-0.0076339 0.0034384 0.0051041 2 -0.035612 0.0039033 -0.99936 0 255 0
-0.0064739 0.0063984 7.6069e-05 2 0.24115 0.48033 -0.84328 0 255 0
-0.0087939 0.0066184 0.00015907 2 -0.035612 0.0039037 -0.99936 0 255 0
-0.0067339 0.0041984 7.6066e-05 2 0.11352 -0.59412 0.79633 0 255 0
-0.0091639 0.0027884 0.00015807 2 0.035612 -0.0039031 0.99936 0 255 0
-0.0068239 0.0043184 0.0050781 2 0.72836 -0.12695 -0.67333 0 255 0
-0.0092739 0.0051184 0.0051691 2 -0.035612 0.0039037 -0.99936 0 255 0
-0.0076739 0.0032584 0.00010607 2 -0.2495 -0.54683 -0.79921 0 255 0
-0.011154 0.0064984 0.00024307 2 -0.44201 -0.071335 -0.89417 0 255 0
-0.0098039 0.0064084 0.0051931 2 -0.15192 -0.79302 -0.58995 0 255 0
-0.0069439 0.0055784 0.0050881 2 -0.76978 0.41202 -0.48752 0 255 0
-0.0091839 0.0037484 0.0051601 2 -0.035612 0.0039037 -0.99936 0 255 0
-0.0083139 0.0050084 0.00013607 2 0.43401 -0.47946 -0.76273 0 255 0
-0.0080939 0.0047284 0.0051251 2 0.035613 -0.003904 0.99936 0 255 0
-0.011234 0.0066484 0.0052451 2 -0.035612 0.0039035 -0.99936 0 255 0
-0.0084139 0.0059584 0.0051421 2 0.035612 -0.0039048 0.99936 0 255 0
-0.010884 0.0042484 0.0052231 2 -0.035612 0.0039037 -0.99936 0 255 0
-0.0075439 0.0067684 0.0051141 2 0.11347 -0.092521 -0.98922 0 255 0
-0.010294 0.0025084 0.00019706 2 0.035612 -0.0039037 0.99936 0 255 0
-0.0065439 0.0027084 6.4064e-05 2 -0.035612 0.003903 -0.99936 0 255 0
-0.0098839 0.0059484 0.00019607 2 0.035612 -0.0039046 0.99936 0 255 0
-0.010354 0.0029084 0.0051991 2 0.0041014 0.28938 -0.95721 0 255 0
-0.010654 0.0049384 0.00021907 2 -0.83233 -0.52209 0.18615 0 255 0
-0.0027839 0.0027484 -6.9936e-05 2 -0.035613 0.0039044 -0.99936 0 255 0
-0.0053239 0.0052684 3.0067e-05 2 -0.035612 0.0039037 -0.99936 0 255 0
-0.0017339 0.0046484 0.0048981 2 -0.15027 0.97887 0.13869 0 255 0
-0.0041039 0.0034984 -1.9935e-05 2 -0.035612 0.0039042 -0.99936 0 255 0
-0.0046539 0.0025784 0.0049941 2 -0.035612 0.0039037 -0.99936 0 255 0
-0.0056739 0.0048484 0.0050401 2 0.035612 -0.0039037 0.99936 0 255 0
-0.0022139 0.0053884 -7.9934e-05 2 0.035612 -0.0039037 0.99936 0 255 0
-0.0029739 0.0053384 0.0049451 2 -0.5444 0.37911 -0.74826 0 255 0
-0.0052439 0.0039484 2.2066e-05 2 0.03561 -0.0039054 0.99936 0 255 0
-0.0035739 0.0046884 -3.3934e-05 2 -0.035611 0.003904 -0.99936 0 255 0
-0.0025239 0.0039184 -7.4935e-05 2 -0.76226 -0.17044 -0.62443 0 255 0
-0.0047539 0.0073884 1.907e-05 2 -0.035611 0.0039039 -0.99936 0 255 0
-0.0044339 0.0048084 0.0049951 2 -0.018356 0.14689 -0.98898 0 255 0
-0.0016239 0.0067084 0.0049021 2 0.035612 -0.0039034 0.99936 0 255 0
-0.0021739 0.0073284 -7.3931e-05 2 -0.87279 -0.21395 -0.4387 0 255 0
-0.0040739 0.0067884 0.0049901 2 0.048129 0.069583 -0.99641 0 255 0
-0.0061139 0.0028384 0.0050471 2 0.035612 -0.0039037 0.99936 0 255 0
-0.0045139 0.0062284 5.0679e-06 2 -0.40127 -0.37769 -0.83446 0 255 0
-0.0026439 0.0031484 0.0049251 2 -0.53763 -0.70019 -0.46977 0 255 0
-0.0058539 0.0069684 0.0050541 2 0.18269 0.98316 0.0049517 0 255 0
-0.0052039 0.0060084 0.0050271 2 -0.024069 -0.079287 -0.99656 0 255 0
-0.0026439 0.0072584 0.0049411 2 -0.035612 0.0039037 -0.99936 0 255 0
-0.0033339 0.0060584 -3.7933e-05 2 -0.035612 0.0039037 -0.99936 0 255 0
-0.0035239 0.0040284 0.0049601 2 -0.035612 0.0039035 -0.99936 0 255 0
0.0034461 0.0059284 0.0047191 2 0.086585 0.51385 -0.8535 0 255 0
0.0022361 0.0037884 -0.00024493 2 0.035088 -0.019668 0.99919 0 255 0
0.0011961 0.0047584 0.0047941 2 0.066941 0.80675 -0.58709 0 255 0
-0.00047391 0.0056784 -0.00014093 2 -0.035612 0.0039037 -0.99936 0 255 0
0.00031609 0.0027784 0.0048181 2 0.035612 -0.0039034 0.99936 0 255 0
0.0020861 0.0057784 0.0047671 2 0.035611 -0.0039038 0.99936 0 255 0
-0.0013239 0.0064784 -0.00010693 2 -0.035612 0.0039037 -0.99936 0 255 0
0.0010961 0.0061384 -0.00019494 2 -0.035611 0.003903 -0.99936 0 255 0
-0.00019391 0.0045184 0.0048431 2 -0.48557 -0.48035 -0.7304 0 255 0
-0.00069391 0.0038984 -0.00013993 2 0.19683 -0.09997 -0.97533 0 255 0
0.00065609 0.0030184 -0.00019193 2 0.035612 -0.0039037 0.99936 0 255 0
0.0017361 0.0071884 0.0047851 2 0.035612 -0.0039037 0.99936 0 255 0
0.0030561 0.0046784 -0.00026994 2 -0.035612 0.0039035 -0.99936 0 255 0
0.0027461 0.0040484 0.0047361 2 -0.11467 0.10989 -0.98731 0 255 0
-0.00011391 0.0061184 0.0048461 2 -0.035612 0.003904 -0.99936 0 255 0
0.0032761 0.0074084 -0.00026794 2 -0.035612 0.003904 -0.99936 0 255 0
0.00032609 0.0073084 -0.00016294 2 0.035612 -0.0039037 0.99936 0 255 0
0.0030861 0.0060084 -0.00026594 2 0.24105 -0.45591 -0.85676 0 255 0
0.0028861 0.0074484 0.0047451 2 0.035611 -0.0039035 0.99936 0 255 0
0.00049609 0.0043984 -0.00017993 2 -0.20146 0.48925 -0.84855 0 255 0
0.0018761 0.0051384 -0.00022694 2 0.035612 -0.0039037 0.99936 0 255 0
-0.0010539 0.0034584 0.0048701 2 -0.035612 0.0039034 -0.99936 0 255 0
0.0019561 0.0024884 0.0047591 2 -0.36376 -0.81991 -0.44206 0 255 0
0.0035161 0.0029584 0.0047051 2 -0.16295 -0.98663 0.0019531 0 255 0
0.0032061 0.0027684 -0.00028293 2 -0.035612 0.0039037 -0.99936 0 255 0
0.0022161 0.0068284 -0.00023194 2 0.095608 0.9507 -0.29501 0 255 0
0.0045161 0.0051384 0.0046781 2 -0.035611 0.0039041 -0.99936 0 255 0
0.0075661 0.0059384 -0.00042594 2 0.035612 -0.0039037 0.99936 0 255 0
0.0077361 0.0032184 0.0045551 2 -0.035612 0.0039036 -0.99936 0 255 0
0.0062361 0.0067684 0.0046231 2 0.035612 -0.003904 0.99936 0 255 0
0.0056861 0.0068684 -0.00035594 2 0.056793 -0.084948 -0.99477 0 255 0
0.0080061 0.0049384 0.0045521 2 0.035612 -0.0039037 0.99936 0 255 0
0.0059061 0.0034784 -0.00037694 2 -0.035612 0.0039037 -0.99936 0 255 0
0.0057161 0.0032784 0.0046281 2 0.035612 -0.0039025 0.99936 0 255 0
0.0044461 0.0072784 -0.00030994 2 0.11054 0.99387 -0.0031968 0 255 0
0.0077061 0.0047684 -0.00043594 2 0.035612 -0.0039037 0.99936 0 255 0
0.0050861 0.0069984 0.0046651 2 -0.035612 0.0039038 -0.99936 0 255 0
0.0067661 0.0044384 0.0045951 2 -0.035612 0.0039039 -0.99936 0 255 0
0.0040061 0.0039684 -0.00030694 2 0.035611 -0.0039046 0.99936 0 255 0
0.0056761 0.0048784 0.0046351 2 0.035611 -0.0039018 0.99936 0 255 0
0.0045761 0.0029284 -0.00033193 2 -0.063165 0.99798 0.0061497 0 255 0
0.0075161 0.0072984 -0.00041894 2 0.035612 -0.0039037 0.99936 0 255 0
0.0070161 0.0028984 -0.00041894 2 0.38017 -0.13771 -0.91461 0 255 0
0.0070861 0.0059284 0.0045891 2 -0.093661 -0.9956 -0.00054937 0 255 0
0.0053361 0.0050484 -0.00034994 2 -0.12755 -0.86435 -0.48644 0 255 0
0.0081761 0.0034084 -0.00045794 2 0.050197 0.11343 -0.99228 0 255 0
0.0063461 0.0057384 -0.00038394 2 0.072239 0.029548 -0.99695 0 255 0
0.0043561 0.0058284 -0.00031194 2 -0.035612 0.0039037 -0.99936 0 255 0
0.0042961 0.0038384 0.0046801 2 -0.050581 0.99484 0.087942 0 255 0
0.0098261 0.0065884 -0.00050394 2 -0.14868 -0.16792 0.97452 0 255 0
0.0094761 0.0038684 -0.00050194 2 -0.035611 0.0039036 -0.99936 0 255 0
0.011786 0.0064084 -0.00057494 2 -0.035612 0.0039035 -0.99936 0 255 0
0.012356 0.0072784 0.0044061 2 -0.10825 -0.71779 -0.68779 0 255 0
0.010846 0.0061984 0.0044561 2 0.035611 -0.0039025 0.99936 0 255 0
0.011056 0.0074684 0.0044541 2 0.12012 -0.50735 0.85333 0 255 0
0.0088661 0.0058684 0.0045251 2 0.1502 -0.98861 -0.0092155 0 255 0
0.013026 0.0059484 0.0043781 2 0.035611 -0.0039037 0.99936 0 255 0
0.011936 0.0054184 0.0044141 2 -0.098663 -0.87561 -0.47283 0 255 0
0.012366 0.0039984 0.0043931 2 0.040085 0.34838 0.9365 0 255 0
0.012926 0.0034084 -0.00062694 2 0.035612 -0.0039037 0.99936 0 255 0
0.0097561 0.0027084 -0.00051694 2 0.0066616 0.99997 0.0036676 0 255 0
0.010226 0.0052984 -0.00052394 2 0.035612 -0.0039037 0.99936 0 255 0
0.011996 0.0041784 -0.00059094 2 0.15942 -0.97993 -0.11966 0 255 0
0.010756 0.0046984 0.0044531 2 0.035612 -0.0039037 0.99936 0 255 0
0.0089961 0.0070684 0.0045251 2 -0.035611 0.0039045 -0.99936 0 255 0
0.010346 0.0026984 0.0044601 2 -0.035612 0.0039041 -0.99936 0 255 0
0.011646 0.0028384 0.0044141 2 -0.99405 0.092903 -0.056866 0 255 0
0.012956 0.0073584 -0.00061294 2 -0.91782 -0.13416 -0.37364 0 255 0
0.010656 0.0034984 -0.00054594 2 0.057101 -0.18425 0.98122 0 255 0
0.0088761 0.0052484 -0.00047594 2 -0.30986 0.95048 -0.023993 0 255 0
0.0095461 0.0035684 0.0044921 2 0.13415 0.49201 -0.86019 0 255 0
0.0086361 0.0065484 -0.00046194 2 0.035611 -0.0039052 0.99936 0 255 0
0.016356 0.0032684 -0.00074994 2 0.0027372 0.13855 -0.99035 0 255 0
0.017296 0.0070984 -0.00076894 2 -0.035612 0.0039037 -0.99936 0 255 0
0.014006 0.0071284 0.0043471 2 -0.035612 0.0039031 -0.99936 0 255 0
0.017826 0.0043784 -0.00079794 2 0.23364 -0.46418 -0.85437 0 255 0
0.013676 0.0051584 -0.00064694 2 -0.095115 0.72736 -0.67963 0 255 0
0.017946 0.0052184 0.0041991 2 -0.035612 0.0039033 -0.99936 0 255 0
0.018176 0.0025784 -0.00081694 2 -0.035612 0.0039036 -0.99936 0 255 0
0.014186 0.0074184 -0.00065594 2 -0.09833 0.99513 0.006937 0 255 0
0.016126 0.0035984 0.0042581 2 -0.61492 -0.63253 0.47095 0 255 0
0.013616 0.0063384 -0.00063994 2 0.48574 -0.86808 -0.10243 0 255 0
0.015726 0.0066784 0.0042841 2 -0.035612 0.0039048 -0.99936 0 255 0
0.018356 0.0024984 0.0041741 2 0.15765 -0.61296 -0.77423 0 255 0
0.013606 0.0033284 0.0043461 2 -0.099736 -0.89915 -0.42612 0 255 0
0.016856 0.0059684 0.0042411 2 0.035612 -0.0039029 0.99936 0 255 0
0.016616 0.0060784 -0.00074794 2 -0.04355 0.033218 -0.9985 0 255 0
0.014986 0.0050584 -0.00069394 2 0.035611 -0.0039042 0.99936 0 255 0
0.018266 0.0068184 0.0041941 2 0.10897 0.99284 -0.048958 0 255 0
0.016176 0.0049984 -0.00073694 2 0 0 0 0 255 0
0.013666 0.0047484 0.0043501 2 -0.039901 -0.013628 -0.99911 0 255 0
0.014826 0.0036884 -0.00069394 2 -0.35035 -0.33338 -0.87528 0 255 0
0.016856 0.0046184 0.0042361 2 0.035612 -0.0039047 0.99936 0 255 0
0.015376 0.0050884 0.0042901 2 0.129 -0.50223 0.85506 0 255 0
0.017836 0.0059584 -0.00079194 2 0.035613 -0.0039034 0.99936 0 255 0
0.014596 0.0059484 0.0043221 2 0.035612 -0.0039037 0.99936 0 255 0
0.015776 0.0073184 -0.00071294 2 0.54236 -0.82457 0.161 0 255 0
0.015026 0.0063284 -0.00069094 2 -0.035612 0.0039037 -0.99936 0 255 0
0.016786 0.0073584 0.0042491 2 0.070044 0.62028 -0.78125 0 255 0
0.014996 0.0039084 0.0042991 2 0.05983 0.11973 0.991 0 255 0
0.019516 0.0025084 -0.00086594 2 0.035612 -0.0039026 0.99936 0 255 0
0.019196 0.0042384 0.0041511 2 -0.26437 0.33896 -0.90289 0 255 0
0.020636 0.0048884 0.0041021 2 -0.035612 0.0039037 -0.99936 0 255 0
0.020286 0.0066484 0.0041221 2 -0.13522 0.56768 -0.81207 0 255 0
0.020146 0.0070684 -0.00086994 2 0.035612 -0.0039037 0.99936 0 255 0
0.023106 0.0048984 -0.00098394 2 0.075482 -0.30561 0.94916 0 255 0
0.022706 0.0034384 0.0040231 2 -0.028741 -0.0093797 -0.99954 0 255 0
0.019196 0.0056184 0.0041561 2 -0.024881 0.00028462 -0.99969 0 255 0
0.021866 0.0053884 0.0040601 2 0.035612 -0.0039037 0.99936 0 255 0
0.019306 0.0061984 -0.00084394 2 -0.078154 -0.63585 0.76784 0 255 0
0.020816 0.0043984 -0.00090394 2 -0.84883 0.1499 -0.50698 0 255 0
0.020566 0.0057884 -0.00088994 2 -0.03189 0.63589 -0.77112 0 255 0
0.021936 0.0060784 -0.00093794 2 -0.091826 -0.99283 -0.076535 0 255 0
0.021546 0.0037684 0.0040651 2 0.030139 -0.0024812 0.99954 0 255 0
0.022136 0.0034484 -0.00095494 2 -0.035612 0.0039034 -0.99936 0 255 0
0.019736 0.0029784 0.0041271 2 -0.035612 0.0039036 -0.99936 0 255 0
0.023296 0.0068585 0.0040151 2 -0.035612 0.0039037 -0.99936 0 255 0
0.023316 0.0031784 -0.00099794 2 -0.035612 0.0039037 -0.99936 0 255 0
0.022396 0.0073184 -0.00094894 2 0.043947 -0.99483 0.091601 0 255 0
0.023146 0.0056485 0.0040161 2 -0.35035 -0.33334 -0.87529 0 255 0
0.019096 0.0046684 -0.00084194 2 -0.035612 0.0039043 -0.99936 0 255 0
0.022026 0.0067984 0.0040601 2 -0.13933 0.04032 -0.98942 0 255 0
0.020646 0.0030384 -0.00090394 2 -0.035612 0.0039037 -0.99936 0 255 0
0.025566 0.0066984 -0.0010649 2 -0.035611 0.0039033 -0.99936 0 255 0
0.027326 0.0037285 -0.0011389 2 -0.015062 -0.087011 -0.99609 0 255 0
0.023636 0.0070084 -0.00099494 2 0.035612 -0.0039037 0.99936 0 255 0
0.026916 0.0061484 -0.0011149 2 -0.024403 -0.82279 -0.56783 0 255 0
0.027836 0.0043185 0.0038431 2 0.14202 -0.22718 -0.96344 0 255 0
0.024656 0.0040784 -0.0010429 2 -0.035612 0.0039037 -0.99936 0 255 0
0.026606 0.0026785 0.0038811 2 -0.035612 0.0039037 -0.99936 0 255 0
0.024886 0.0027984 -0.0010559 2 -0.035612 0.0039037 -0.99936 0 255 0
0.028016 0.0066385 -0.0011519 2 -0.019167 0.9958 0.08948 0 255 0
0.026186 0.0046085 0.0039031 2 0.035612 -0.0039034 0.99936 0 255 0
0.026906 0.0068685 0.0038871 2 0.010462 0.89069 0.45449 0 255 0
0.024576 0.0062685 0.0039671 2 -0.035612 0.0039038 -0.99936 0 255 0
0.026126 0.0058285 0.0039101 2 -0.12649 -0.57956 -0.80505 0 255 0
0.024636 0.0030685 0.0039521 2 0.035612 -0.0039037 0.99936 0 255 0
0.025086 0.0074185 0.0039531 2 0.035614 -0.0039044 0.99936 0 255 0
0.025976 0.0052284 -0.0010849 2 -0.035612 0.003904 -0.99936 0 255 0
0.027806 0.0027085 0.0038381 2 -0.035612 0.0039037 -0.99936 0 255 0
0.025936 0.0037884 -0.0010889 2 -0.028817 -0.069626 -0.99716 0 255 0
0.024156 0.0044985 0.0039751 2 -0.035612 0.0039037 -0.99936 0 255 0
0.024406 0.0056584 -0.0010279 2 -0.035612 0.0039037 -0.99936 0 255 0
0.026256 0.0024884 -0.0011059 2 0.035612 -0.0039034 0.99936 0 255 0
0.027786 0.0056585 0.0038501 2 -0.035612 0.0039037 -0.99936 0 255 0
0.028146 0.0071485 0.0038431 2 -0.2501 -0.15862 -0.95514 0 255 0
0.027466 0.0025385 -0.0011489 2 -0.44872 -0.77466 -0.44559 0 255 0
0.025096 0.0052085 0.0039441 2 -0.030397 0.52639 -0.8497 0 255 0
0.029566 0.0026385 0.0037751 2 -0.010678 0.55575 -0.83128 0 255 0
0.033106 0.0038985 -0.0013439 2 -0.13267 0.99112 0.0085965 0 255 0
0.030206 0.0043985 -0.0012389 2 0.077978 -0.99688 -0.012295 0 255 0
0.029416 0.0066185 -0.0012019 2 0.14436 0.33244 -0.93201 0 255 0
0.029526 0.0034085 -0.0012189 2 0.035612 -0.0039037 0.99936 0 255 0
0.032356 0.0052585 -0.0013119 2 -0.035612 0.0039037 -0.99936 0 255 0
0.032266 0.0030185 0.0036801 2 0.035611 -0.0039039 0.99936 0 255 0
0.030996 0.0054985 0.0037351 2 0.14448 -0.98292 0.11399 0 255 0
0.028746 0.0047285 -0.0011859 2 -0.035612 0.0039037 -0.99936 0 255 0
0.029326 0.0040985 0.0037901 2 0.011017 -0.99993 -0.0043007 0 255 0
0.030696 0.0028485 -0.0012629 2 -0.00017892 0.46531 -0.88515 0 255 0
0.033396 0.0035185 0.0036421 2 -0.035612 0.0039042 -0.99936 0 255 0
0.031416 0.0066385 -0.0012729 2 0.54861 0.10531 -0.82942 0 255 0
0.030946 0.0070685 0.0037431 2 -0.11342 0.99052 0.0775 0 255 0
0.031666 0.0034985 -0.0012949 2 -0.32616 0.31505 -0.89127 0 255 0
0.032786 0.0063685 -0.0013229 2 0.035612 -0.003905 0.99936 0 255 0
0.033486 0.0073385 -0.0013449 2 -0.035612 0.0039037 -0.99936 0 255 0
0.029266 0.0067685 0.0038021 2 0.11198 0.95805 0.2638 0 255 0
0.032596 0.0047585 0.0036761 2 0.035611 -0.0039038 0.99936 0 255 0
0.029306 0.0055585 0.0037961 2 -0.058825 -0.99827 -0.0018051 0 255 0
0.030966 0.0043185 0.0037321 2 -0.42512 -0.74674 -0.51152 0 255 0
0.032286 0.0064485 0.0036931 2 0.035612 -0.0039037 0.99936 0 255 0
0.030636 0.0055985 -0.0012499 2 0.21647 -0.96428 -0.15269 0 255 0
0.037696 0.0041585 -0.0015069 2 0.09428 -0.21882 -0.9712 0 255 0
0.036226 0.0059985 0.0035511 2 0.045928 -0.99893 -0.005538 0 255 0
0.038306 0.0031685 0.0034661 2 -0.035612 0.0039037 -0.99936 0 255 0
0.034666 0.0030085 -0.0014029 2 -0.49005 0.021116 -0.87144 0 255 0
0.036876 0.0048485 0.0035231 2 -0.035612 0.0039047 -0.99936 0 255 0
0.035086 0.0068585 -0.0014029 2 -0.035612 0.0039037 -0.99936 0 255 0
0.035016 0.0026285 0.0035811 2 -0.035612 0.0039041 -0.99936 0 255 0
0.034886 0.0056585 0.0035971 2 0.022016 -0.018946 -0.99958 0 255 0
0.033816 0.0067485 0.0036401 2 0.043344 0.54367 -0.83818 0 255 0
0.034946 0.0054685 -0.0014039 2 0.24647 -0.85868 -0.44935 0 255 0
0.037056 0.0035985 0.0035121 2 0.035611 -0.0039029 0.99936 0 255 0
0.037076 0.0068885 0.0035241 2 -0.27758 0.8621 -0.42396 0 255 0
0.035376 0.0043185 -0.0014239 2 0.035701 -0.0044346 0.99935 0 255 0
0.036606 0.0046585 -0.0014659 2 0.035612 -0.0039037 0.99936 0 255 0
0.038426 0.0066485 0.0034751 2 -0.41921 -0.038997 -0.90705 0 255 0
0.038406 0.0063685 -0.0015239 2 0.052006 -0.74164 -0.66878 0 255 0
0.033956 0.0046985 -0.0013719 2 0.035612 -0.0039037 0.99936 0 255 0
0.036616 0.0060585 -0.0014609 2 -0.066404 -0.87517 0.47924 0 255 0
0.036916 0.0033085 -0.0014819 2 0.035613 -0.0039026 0.99936 0 255 0
0.037566 0.0057985 0.0035031 2 0.020244 0.12256 -0.99225 0 255 0
0.038116 0.0029185 -0.0015269 2 0.035611 -0.0039031 0.99936 0 255 0
0.034076 0.0062585 -0.0013699 2 -0.98171 -0.17832 -0.066651 0 255 0
0.035566 0.0041585 0.0035671 2 0.035613 -0.0039037 0.99936 0 255 0
0.034446 0.0045385 0.0036091 2 0.035612 -0.0039025 0.99936 0 255 0
0.035276 0.0071585 0.0035891 2 -0.17208 -0.97506 0.1402 0 255 0
0.039156 0.0048585 0.0034421 2 0.035612 -0.0039037 0.99936 0 255 0
0.042166 0.0039185 0.0033311 2 -0.087765 -0.12204 -0.98864 0 255 0
0.040906 0.0046985 0.0033791 2 -0.083616 -0.99514 0.051913 0 255 0
0.043526 0.0050885 0.0032871 2 0.035612 -0.0039039 0.99936 0 255 0
0.040246 0.0050485 -0.0015939 2 -0.88613 -0.3685 -0.28104 0 255 0
0.041036 0.0038385 -0.0016269 2 0.53842 -0.58621 -0.60536 0 255 0
0.042436 0.0050385 -0.0016719 2 0.035613 -0.0039052 0.99936 0 255 0
0.042266 0.0036485 -0.0016719 2 -0.095281 -0.36708 -0.9253 0 255 0
0.042496 0.0060985 0.0033281 2 0.035612 -0.0039037 0.99936 0 255 0
0.042136 0.0073385 -0.0016529 2 0.035611 -0.0039019 0.99936 0 255 0
0.038926 0.0049585 -0.0015479 2 0.035612 -0.0039037 0.99936 0 255 0
0.043006 0.0025585 0.0032961 2 0.035611 -0.0039035 0.99936 0 255 0
0.039836 0.0060585 0.0034231 2 -0.12853 -0.99162 0.01323 0 255 0
0.041166 0.0059085 0.0033741 2 0.20328 -0.23693 -0.95002 0 255 0
0.040266 0.0064885 -0.0015899 2 -0.2993 -0.148 -0.94261 0 255 0
0.039576 0.0029185 0.0034201 2 0.046886 -0.99821 -0.037008 0 255 0
0.041256 0.0057685 -0.0016279 2 0.035612 -0.0039038 0.99936 0 255 0
0.041056 0.0029185 0.0033671 2 -0.035612 0.0039036 -0.99936 0 255 0
0.042056 0.0072685 0.0033481 2 -0.037972 0.0020836 -0.99928 0 255 0
0.039456 0.0034385 -0.0015719 2 0.035612 -0.0039037 0.99936 0 255 0
0.048326 0.0059885 0.0031201 2 0.073283 -0.89875 -0.43229 0 255 0
0.047796 0.0037585 -0.0018689 2 -0.28908 -0.9547 -0.070527 0 255 0
0.046786 0.0047685 -0.0018289 2 -0.97967 0.18968 -0.065398 0 255 0
0.044806 0.0057085 0.0032441 2 0.035613 -0.0039026 0.99936 0 255 0
0.043796 0.0072285 0.0032861 2 -0.035612 0.0039039 -0.99936 0 255 0
0.045476 0.0028585 0.0032091 2 -0.12899 0.048087 -0.99048 0 255 0
0.043996 0.0031685 0.0032631 2 0.035612 -0.0039036 0.99936 0 255 0
0.045146 0.0040485 0.0032251 2 -0.098678 0.86245 -0.49642 0 255 0
0.048246 0.0073485 0.0031281 2 -0.035612 0.0039038 -0.99936 0 255 0
0.047136 0.0033685 0.0031521 2 -0.41072 0.21739 -0.88546 0 255 0
0.046766 0.0058085 0.0031741 2 -0.035612 0.0039037 -0.99936 0 255 0
0.046956 0.0070085 0.0031721 2 -0.035612 0.0039046 -0.99936 0 255 0
0.047186 0.0045585 0.0031551 2 0.036987 -0.67772 -0.73439 0 255 0
0.043976 0.0036785 -0.0017329 2 -0.89347 0.16026 0.41955 0 255 0
0.045906 0.0034685 -0.0018019 2 0.017728 -0.022172 -0.9996 0 255 0
0.044816 0.0050485 -0.0017569 2 -0.10835 0.32004 -0.94119 0 255 0
0.045706 0.0067685 0.0032161 2 -0.10029 0.75482 -0.64822 0 255 0
0.047866 0.0061285 -0.0018619 2 0.035612 -0.0039049 0.99936 0 255 0
0.046806 0.0027385 -0.0018369 2 -0.26978 -0.27702 -0.92221 0 255 0
0.045356 0.0068785 -0.0017689 2 0.035612 -0.0039023 0.99936 0 255 0
0.046616 0.0065985 -0.0018149 2 -0.035612 0.0039035 -0.99936 0 255 0
0.043696 0.0067385 -0.0017109 2 -0.14151 -0.98712 -0.074651 0 255 0
0.043666 0.0053385 -0.0017149 2 -0.4124 0.905 -0.1044 0 255 0
0.049436 0.0053885 0.0030781 2 -0.035611 0.003905 -0.99936 0 255 0
0.053156 0.0041485 -0.0020579 2 0.63425 0.21805 0.74174 0 255 0
0.051196 0.0060585 0.0030181 2 0.035612 -0.003904 0.99936 0 255 0
0.050596 0.0056985 -0.0019609 2 0.035611 -0.0039026 0.99936 0 255 0
0.049936 0.0046485 -0.0019409 2 0.035612 -0.0039037 0.99936 0 255 0
0.052376 0.0069085 0.0029791 2 -0.095851 -0.99256 -0.075139 0 255 0
0.051016 0.0044185 0.0030181 2 -0.46373 0.078997 -0.88245 0 255 0
0.052646 0.0050985 0.0029621 2 0.035612 -0.0039037 0.99936 0 255 0
0.049576 0.0066485 -0.0019209 2 -0.24867 -0.87392 -0.41765 0 255 0
0.051246 0.0032085 0.0030051 2 -0.28009 -0.037291 -0.95925 0 255 0
0.051856 0.0035085 -0.0020139 2 0.1836 0.98299 0.0044955 0 255 0
0.048746 0.0044685 -0.0018989 2 -0.17529 -0.81846 -0.54717 0 255 0
0.049156 0.0029085 -0.0019199 2 -0.29876 0.40332 -0.86492 0 255 0
0.052696 0.0062885 -0.0020329 2 -0.12496 -0.070551 -0.98965 0 255 0
0.051646 0.0050985 -0.0020009 2 0.48192 0.87099 -0.095581 0 255 0
0.048706 0.0040185 0.0030981 2 0.076471 0.99707 0.0011693 0 255 0
0.049206 0.0028385 0.0030761 2 0.43887 -0.01724 -0.89839 0 255 0
0.052326 0.0038585 0.0029691 2 -0.035612 0.0039036 -0.99936 0 255 0
0.051536 0.0063985 -0.0019919 2 0.035613 -0.0039029 0.99936 0 255 0
0.058296 0.0069485 0.0027681 2 -0.16295 -0.98663 0.0019548 0 255 0
0.055566 0.0028985 -0.0021489 2 -0.035612 0.0039037 -0.99936 0 255 0
0.057956 0.0030285 -0.0022329 2 0.026359 0.99814 0.054895 0 255 0
0.055456 0.0074385 0.0028711 2 0.07557 0.75334 -0.65328 0 255 0
0.056446 0.0045885 0.0028251 2 0.28774 -0.95337 -0.091075 0 255 0
0.057276 0.0070385 -0.0021929 2 -0.035611 0.0039047 -0.99936 0 255 0
0.054826 0.0073085 -0.0021049 2 -0.023185 0.029147 -0.99931 0 255 0
0.054936 0.0055785 -0.0021159 2 0.035611 -0.003903 0.99936 0 255 0
0.058146 0.0043785 -0.0022349 2 -0.035611 0.0039034 -0.99936 0 255 0
0.054006 0.0029385 0.0029061 2 0.076472 0.99707 0.0011684 0 255 0
0.056396 0.0038585 -0.0021739 2 -0.028249 0.99959 0.0049061 0 255 0
0.054786 0.0039885 -0.0021169 2 0.21332 0.0087607 -0.97694 0 255 0
0.057726 0.0052285 0.0027821 2 -0.035611 0.0039037 -0.99936 0 255 0
0.053656 0.0056185 -0.0020699 2 0.41849 0.9028 -0.099075 0 255 0
0.054006 0.0068385 0.0029211 2 0.03561 -0.003904 0.99936 0 255 0
0.053746 0.0056885 0.0029251 2 0.035612 -0.0039031 0.99936 0 255 0
0.055176 0.0046085 0.0028701 2 -0.035612 0.0039038 -0.99936 0 255 0
0.056086 0.0030785 0.0028321 2 -0.035612 0.0039032 -0.99936 0 255 0
0.057036 0.0065285 0.0028111 2 0.035613 -0.0039037 0.99936 0 255 0
0.053906 0.0043985 0.0029151 2 -0.13874 -0.022319 -0.99008 0 255 0
0.056926 0.0051785 -0.0021879 2 0.035612 -0.0039037 0.99936 0 255 0
0.053606 0.0030185 -0.0020789 2 -0.035612 0.0039037 -0.99936 0 255 0
0.055066 0.0063085 0.0028811 2 -0.096345 0.11969 -0.98813 0 255 0
0.058036 0.0060985 -0.0022239 2 -0.10401 -0.062218 -0.99263 0 255 0
0.056086 0.0062185 -0.0021539 2 0.18464 -0.98275 -0.010419 0 255 0
0.056846 0.0025285 -0.0021959 2 -0.40863 -0.79892 -0.4413 0 255 0
0.057876 0.0036885 0.0027701 2 0.035613 -0.0039041 0.99936 0 255 0
0.062676 0.0039385 -0.0023979 2 -0.11147 -0.99377 0.0015181 0 255 0
0.059176 0.0048385 0.0027281 2 0.17688 -0.91673 -0.35821 0 255 0
0.063076 0.0047785 0.0025891 2 0.035612 -0.0039037 0.99936 0 255 0
0.062356 0.0061485 0.0026201 2 0.28362 0.9553 -0.083463 0 255 0
0.061116 0.0070885 -0.0023299 2 -0.035612 0.0039039 -0.99936 0 255 0
0.060736 0.0050185 0.0026741 2 -0.60237 -0.61657 -0.50694 0 255 0
0.059526 0.0052985 -0.0022799 2 -0.035612 0.0039037 -0.99936 0 255 0
0.061806 0.0049185 -0.0023629 2 -0.035612 0.0039037 -0.99936 0 255 0
0.061526 0.0040785 0.0026421 2 0 0 0 0 255 0
0.060406 0.0061085 -0.0023089 2 -0.035612 0.0039037 -0.99936 0 255 0
0.062676 0.0026885 0.0025951 2 -0.035612 0.0039037 -0.99936 0 255 0
0.059926 0.0064085 0.0027081 2 -0.035611 0.0039033 -0.99936 0 255 0
0.059486 0.0035885 -0.0022859 2 0.037078 -0.99809 0.0494 0 255 0
0.063076 0.0050885 -0.0024079 2 0.016181 -0.99768 -0.066064 0 255 0
0.059826 0.0033285 0.0027001 2 -0.034574 -0.99853 -0.041771 0 255 0
0.059066 0.0066585 -0.0022589 2 0.035612 -0.0039037 0.99936 0 255 0
0.061276 0.0027685 0.0026461 2 -0.31085 -0.28283 -0.9074 0 255 0
0.060526 0.0029285 -0.0023249 2 -0.41492 -0.09764 -0.9046 0 255 0
0.058606 0.0027385 0.0027411 2 0.035612 -0.0039037 0.99936 0 255 0
0.062836 0.0066385 -0.0023929 2 0.0027648 -0.72466 -0.6891 0 255 0
0.062116 0.0027085 -0.0023829 2 -0.18143 0.98026 0.078584 0 255 0
0.061006 0.0040785 -0.0023379 2 0.088431 0.34505 -0.93441 0 255 0
0.061116 0.0067285 0.0026671 2 0.035612 -0.0039037 0.99936 0 255 0
0.067306 0.0055485 -0.0025569 2 -0.035611 0.0039035 -0.99936 0 255 0
0.066056 0.0067685 -0.0025069 2 0.44957 0.43405 -0.7807 0 255 0
0.066896 0.0059585 0.0024581 2 0.035614 -0.0039055 0.99936 0 255 0
0.064386 0.0036185 -0.0024599 2 0.035611 -0.0039053 0.99936 0 255 0
0.066146 0.0027085 -0.0025259 2 0.035612 -0.0039029 0.99936 0 255 0
0.066606 0.0044585 0.0024621 2 -0.035612 0.0039033 -0.99936 0 255 0
0.064526 0.0052885 0.0025401 2 0.035612 -0.0039026 0.99936 0 255 0
0.065806 0.0072285 0.0025011 2 0.47619 -0.30206 -0.82584 0 255 0
0.066526 0.0026785 0.0024581 2 0.035613 -0.0039045 0.99936 0 255 0
0.065716 0.0059585 0.0025001 2 0.035612 -0.0039037 0.99936 0 255 0
0.066896 0.0040685 -0.0025479 2 -0.035611 0.0039038 -0.99936 0 255 0
0.063616 0.0061885 0.0025761 2 0.035612 -0.0039037 0.99936 0 255 0
0.068486 0.0025085 0.0023881 2 -0.035613 0.0039042 -0.99936 0 255 0
0.064596 0.0073685 -0.0024529 2 0.53615 0.021721 -0.84385 0 255 0
0.066006 0.0054085 -0.0025109 2 0.035612 -0.0039038 0.99936 0 255 0
0.064316 0.0055585 -0.0024499 2 0.035612 -0.0039037 0.99936 0 255 0
0.065196 0.0045485 -0.0024849 2 0.035612 -0.0039052 0.99936 0 255 0
0.064136 0.0073685 0.0025621 2 -0.035611 0.0039032 -0.99936 0 255 0
0.068166 0.0036285 0.0024041 2 -0.4228 -0.90311 -0.075041 0 255 0
0.065316 0.0035485 0.0025051 2 0.035611 -0.0039044 0.99936 0 255 0
0.068506 0.0042485 -0.0026049 2 -0.011364 0.98151 0.19106 0 255 0
0.068276 0.0069985 -0.0025859 2 -0.035612 0.0039037 -0.99936 0 255 0
0.064036 0.0036385 0.0025511 2 -0.063169 0.99798 0.0061481 0 255 0
0.067846 0.0029385 -0.0025859 2 -0.038041 -0.36058 -0.93195 0 255 0
0.067946 0.0050185 0.0024171 2 0.035611 -0.0039036 0.99936 0 255 0
0.064686 0.0025085 0.0025231 2 -0.035612 0.0039042 -0.99936 0 255 0
0.072966 0.0068885 -0.0027529 2 0.56504 -0.32678 -0.75759 0 255 0
0.070876 0.0068985 -0.0026789 2 -0.035611 0.0039039 -0.99936 0 255 0
0.071296 0.0054285 -0.0026989 2 0.0040225 0.9999 -0.013866 0 255 0
0.068746 0.0054285 -0.0026079 2 -0.035611 0.0039043 -0.99936 0 255 0
0.070686 0.0069385 0.0023271 2 -0.31461 -0.94612 -0.076615 0 255 0
0.069376 0.0064885 -0.0026269 2 -0.11385 -0.094408 -0.989 0 255 0
0.071636 0.0054885 0.0022871 2 -0.13267 0.99112 0.0085985 0 255 0
0.071256 0.0027785 0.0022901 2 0.27526 -0.95746 -0.086596 0 255 0
0.069936 0.0044685 -0.0026549 2 0.035612 -0.0039037 0.99936 0 255 0
0.071876 0.0070685 0.0022851 2 0.035613 -0.0039041 0.99936 0 255 0
0.069526 0.0033985 0.0023541 2 0.91742 0.39657 -0.032804 0 255 0
0.072606 0.0040085 -0.0027509 2 0.035612 -0.0039037 0.99936 0 255 0
0.072646 0.0053785 -0.0027479 2 0.035612 -0.0039037 0.99936 0 255 0
0.071676 0.0042585 0.0022811 2 -0.035611 0.0039029 -0.99936 0 255 0
0.069336 0.0051985 0.0023681 2 0.035612 -0.0039029 0.99936 0 255 0
0.072896 0.0045885 0.0022391 2 0.025959 0.14378 -0.98927 0 255 0
0.072596 0.0029285 0.0022431 2 0.025664 -0.59153 -0.80588 0 255 0
0.068706 0.0064285 0.0023951 2 -0.035612 0.0039021 -0.99936 0 255 0
0.071166 0.0039285 -0.0026999 2 0.58054 0.013115 -0.81413 0 255 0
0.070496 0.0050985 0.0023261 2 -0.035612 0.0039037 -0.99936 0 255 0
0.071776 0.0027585 -0.0027269 2 0.035612 -0.0039033 0.99936 0 255 0
0.077756 0.0072985 0.0020761 2 0.035613 -0.0039044 0.99936 0 255 0
0.076176 0.0063485 -0.0028689 2 0.035614 -0.0039043 0.99936 0 255 0
0.073856 0.0029185 0.0021981 2 -0.035612 0.0039042 -0.99936 0 255 0
0.075376 0.0073985 -0.0028369 2 -0.035612 0.0039035 -0.99936 0 255 0
0.074336 0.0048385 0.0021881 2 0.035612 -0.0039037 0.99936 0 255 0
0.073646 0.0065185 0.0022191 2 0.054875 -0.51159 -0.85747 0 255 0
0.077626 0.0055385 0.0020741 2 -0.4287 -0.22439 -0.87514 0 255 0
0.074426 0.0056185 -0.0028099 2 -0.035612 0.0039044 -0.99936 0 255 0
0.073686 0.0046485 -0.0027879 2 0.035612 -0.0039037 0.99936 0 255 0
0.076136 0.0034185 0.0021191 2 0.4319 0.4874 -0.75888 0 255 0
0.075416 0.0032985 -0.0028549 2 -0.035612 0.0039037 -0.99936 0 255 0
0.074746 0.0070385 0.0021821 2 -0.11332 0.98082 0.15856 0 255 0
0.077746 0.0046485 -0.0029319 2 -0.12837 -0.99173 0.00070233 0 255 0
0.075516 0.0046685 0.0021461 2 0.035612 -0.0039037 0.99936 0 255 0
0.077376 0.0060885 -0.0029129 2 0.67472 0.46904 -0.56988 0 255 0
0.078136 0.0032885 0.0020471 2 0.035612 -0.0039037 0.99936 0 255 0
0.077006 0.0073685 -0.0028949 2 -0.025752 -0.036083 -0.99902 0 255 0
0.074256 0.0069285 -0.0027989 2 -0.91925 0.38749 -0.069565 0 255 0
0.078286 0.0028885 -0.0029579 2 0.11176 -0.26455 -0.95788 0 255 0
0.076306 0.0048185 -0.0028799 2 0.061073 -0.10477 -0.99262 0 255 0
0.077266 0.0041485 0.0020811 2 0.035611 -0.0039049 0.99936 0 255 0
0.077166 0.0035785 -0.0029159 2 0.035612 -0.003903 0.99936 0 255 0
0.074996 0.0045185 -0.0028349 2 0.96584 -0.25702 -0.03315 0 255 0
0.073696 0.0032385 -0.0027929 2 0.035612 -0.0039037 0.99936 0 255 0
0.076056 0.0060885 0.0021321 2 0.95503 0.18963 -0.22796 0 255 0
0.074826 0.0036485 0.0021661 2 -0.11704 0.98418 -0.13302 0 255 0
0.079266 0.0041185 0.0020101 2 0.094458 0.98868 0.11654 0 255 0
0.082446 0.0037085 -0.0031029 2 0.035612 -0.0039031 0.99936 0 255 0
0.080336 0.0048585 -0.0030239 2 -0.035611 0.0039041 -0.99936 0 255 0
0.080526 0.0054085 0.0019701 2 0.035612 -0.0039037 0.99936 0 255 0
0.083486 0.0060385 0.0018671 2 0.47346 -0.84835 -0.23693 0 255 0
0.079226 0.0062785 -0.0029789 2 -0.40388 -0.51166 -0.75835 0 255 0
0.081796 0.0051485 0.0019241 2 0.29238 -0.94757 -0.12895 0 255 0
0.082326 0.0038085 0.0018991 2 0.035612 -0.0039047 0.99936 0 255 0
0.078936 0.0051085 -0.0029729 2 0.035612 -0.0039037 0.99936 0 255 0
0.081696 0.0055385 -0.0030699 2 -0.035612 0.0039032 -0.99936 0 255 0
0.079426 0.0061185 0.0020121 2 -0.035612 0.0039029 -0.99936 0 255 0
0.080056 0.0029685 0.0019771 2 0.14589 0.9893 -0.0013349 0 255 0
0.079876 0.0028785 -0.0030149 2 -0.32909 0.93286 -0.14657 0 255 0
0.081786 0.0065685 0.0019301 2 0.035611 -0.0039049 0.99936 0 255 0
0.080676 0.0040285 0.0019591 2 0.51447 0.095357 -0.85219 0 255 0
0.080686 0.0065885 -0.0030289 2 -0.035611 0.0039039 -0.99936 0 255 0
0.082916 0.0048485 -0.0031159 2 -0.035612 0.0039037 -0.99936 0 255 0
0.080866 0.0035385 -0.0030479 2 0.072542 0.65863 0.74897 0 255 0
0.082786 0.0062285 -0.0031049 2 0.035612 -0.0039037 0.99936 0 255 0
0.080356 0.0069885 0.0019821 2 -0.058826 -0.99827 -0.0018003 0 255 0
0.081256 0.0025185 0.0019331 2 -0.035613 0.0039044 -0.99936 0 255 0
0.083016 0.0071185 0.0018881 2 0.22705 0.073598 -0.9711 0 255 0
0.079216 0.0038585 -0.0029879 2 -0.035612 0.0039039 -0.99936 0 255 0
0.087806 0.0062985 -0.0032839 2 0.035612 -0.0039037 0.99936 0 255 0
0.087526 0.0070185 0.0017271 2 -0.035612 0.0039037 -0.99936 0 255 0
0.085406 0.0050585 -0.0032029 2 0.035613 -0.003904 0.99936 0 255 0
0.083796 0.0034685 -0.0031519 2 -0.33624 0.84199 -0.42189 0 255 0
0.087986 0.0054685 0.0017041 2 -0.035612 0.0039032 -0.99936 0 255 0
0.085996 0.0055385 0.0017761 2 -0.097176 -0.65757 -0.7471 0 255 0
0.084166 0.0044485 0.0018371 2 0.035612 -0.0039035 0.99936 0 255 0
0.088226 0.0041985 -0.0033069 2 0.03561 -0.0039035 0.99936 0 255 0
0.088186 0.0033785 0.0016891 2 -0.28909 -0.9547 -0.070527 0 255 0
0.085946 0.0034785 -0.0032289 2 0.00079946 0.99987 0.01627 0 255 0
0.085746 0.0064985 -0.0032099 2 -0.035612 0.0039035 -0.99936 0 255 0
0.086766 0.0043785 -0.0032549 2 -0.035612 0.0039034 -0.99936 0 255 0
0.084326 0.0062785 -0.0031599 2 0.035611 -0.0039033 0.99936 0 255 0
0.084826 0.0065785 0.0018211 2 0.035612 -0.0039037 0.99936 0 255 0
0.086326 0.0043685 0.0017591 2 -0.11097 -0.98735 0.11327 0 255 0
0.085356 0.0025785 0.0017871 2 -0.035612 0.0039037 -0.99936 0 255 0
0.085246 0.0039285 0.0017961 2 0.035612 -0.0039037 0.99936 0 255 0
0.086496 0.0031585 0.0017481 2 -0.035612 0.0039036 -0.99936 0 255 0
0.087186 0.0032385 -0.0032739 2 0.035612 -0.0039037 0.99936 0 255 0
0.086046 0.0069285 0.0017791 2 0.11126 0.99379 -8.2943e-05 0 255 0
0.086796 0.0056885 -0.0032509 2 0.2525 0.38086 -0.88949 0 255 0
0.089796 0.0046685 -0.0033609 2 0.21075 -0.4262 -0.87974 0 255 0
0.092406 0.0058785 -0.0034499 2 0.035612 -0.0039037 0.99936 0 255 0
0.092746 0.0051885 0.0015341 2 -0.36788 -0.27264 -0.88901 0 255 0
0.093556 0.0062285 0.0015091 2 0.28363 0.9553 -0.083469 0 255 0
0.089886 0.0057785 0.0016381 2 -0.035611 0.0039025 -0.99936 0 255 0
0.090936 0.0039385 0.0015931 2 0.035612 -0.0039037 0.99936 0 255 0
0.088716 0.0071085 -0.0033139 2 -0.035612 0.0039037 -0.99936 0 255 0
0.091676 0.0030085 -0.0034349 2 -0.087321 0.99237 -0.087092 0 255 0
0.092066 0.0031285 0.0015501 2 0.10755 0.99418 -0.0054749 0 255 0
0.093006 0.0073085 -0.0034659 2 0.043456 0.038706 0.99831 0 255 0
0.089296 0.0060885 -0.0033379 2 -0.028254 0.99959 0.0049128 0 255 0
0.089846 0.0044685 0.0016341 2 0.035612 -0.0039037 0.99936 0 255 0
0.090456 0.0064685 -0.0033779 2 0.5144 -0.85728 -0.021676 0 255 0
0.092466 0.0042285 -0.0034589 2 -0.035612 0.0039038 -0.99936 0 255 0
0.091426 0.0057385 0.0015831 2 -0.12836 -0.99173 0.00069935 0 255 0
0.090116 0.0030085 -0.0033789 2 -0.035612 0.0039034 -0.99936 0 255 0
0.091086 0.0046185 -0.0034079 2 0.035612 -0.0039057 0.99936 0 255 0
0.089386 0.0028085 0.0016441 2 0.035612 -0.0039032 0.99936 0 255 0
0.088686 0.0064585 0.0016831 2 -0.10758 -0.99297 -0.049435 0 255 0
0.090386 0.0070385 0.0016251 2 0.5746 0.81826 -0.016895 0 255 0
0.092536 0.0069585 0.0015481 2 0.14675 0.98897 -0.020161 0 255 0
0.096096 0.0046385 -0.0035859 2 0.48574 -0.86808 -0.10243 0 255 0
0.097576 0.0054885 0.0013631 2 0.035611 -0.003903 0.99936 0 255 0
0.098536 0.0055485 -0.0036689 2 -0.035612 0.0039037 -0.99936 0 255 0
0.096636 0.0064485 -0.0035979 2 -0.035612 0.0039042 -0.99936 0 255 0
0.094556 0.0026885 0.0014591 2 -0.035612 0.0039037 -0.99936 0 255 0
0.094116 0.0062585 -0.0035089 2 -0.29325 0.95396 -0.062912 0 255 0
0.097566 0.0032085 -0.0036439 2 -0.69089 0.72039 -0.060836 0 255 0
0.095906 0.0047585 0.0014191 2 0.035612 -0.0039037 0.99936 0 255 0
0.096016 0.0073985 0.0014261 2 0.064528 -0.65467 0.75315 0 255 0
0.096286 0.0029985 -0.0035989 2 -0.035612 0.0039037 -0.99936 0 255 0
0.097106 0.0041585 0.0013741 2 0.63692 -0.18461 -0.7485 0 255 0
0.094006 0.0043485 0.0014861 2 -0.035611 0.0039038 -0.99936 0 255 0
0.096566 0.0030585 0.0013891 2 -0.29031 -0.44472 -0.84731 0 255 0
0.093576 0.0051285 -0.0034949 2 -0.04487 -0.90198 -0.42944 0 255 0
0.095076 0.0038285 0.0014451 2 -0.113 0.09979 -0.98857 0 255 0
0.095356 0.0057985 -0.0035549 2 -0.16793 0.28094 -0.94492 0 255 0
0.097546 0.0045585 -0.0036379 2 0.43401 -0.47946 -0.76273 0 255 0
0.095506 0.0061585 0.0014391 2 -0.095844 -0.99256 -0.075155 0 255 0
0.097446 0.0068985 0.0013731 2 -0.035612 0.0039037 -0.99936 0 255 0
0.094776 0.0037785 -0.0035429 2 0.16581 -0.98611 -0.0098446 0 255 0
0.098376 0.0029085 0.0013241 2 -0.035612 0.0039037 -0.99936 0 255 0
0.094496 0.0054485 0.0014721 2 -0.035612 0.0039037 -0.99936 0 255 0
0.093616 0.0038485 -0.0035009 2 -0.16351 -0.35091 -0.92202 0 255 0
0.097866 0.0068485 -0.0036409 2 0.31218 0.60799 -0.73 0 255 0
0.10157 0.0058185 -0.0037769 2 -0.035611 0.0039031 -0.99936 0 255 0
0.10239 0.0046385 0.0011881 2 -0.76137 -0.42191 -0.49225 0 255 0
0.10188 0.0032985 -0.0037979 2 -0.035612 0.0039031 -0.99936 0 255 0
0.10026 0.0028785 -0.0037419 2 -0.035612 0.0039037 -0.99936 0 255 0
0.098966 0.0048585 0.0013111 2 -0.58251 0.31133 -0.75084 0 255 0
0.10043 0.0048985 0.0012591 2 0.18039 0.98359 -0.002589 0 255 0
0.10319 0.0057885 0.0011641 2 0.0048907 0.95323 -0.30222 0 255 0
0.099226 0.0035385 -0.0037019 2 -0.035612 0.0039037 -0.99936 0 255 0
0.10047 0.0068685 0.0012651 2 -0.30428 -0.17838 -0.93573 0 255 0
0.10061 0.0047685 -0.0037469 2 -0.13839 -0.99038 0.002373 0 255 0
0.10283 0.0044285 -0.0038269 2 0.019454 -0.11339 -0.99336 0 255 0
0.10154 0.0058185 0.0012221 2 0.51787 0.815 -0.25998 0 255 0
0.10285 0.0059485 -0.0038219 2 0.13875 0.16867 -0.97586 0 255 0
0.10014 0.0070985 -0.0037209 2 -0.035612 0.0039036 -0.99936 0 255 0
0.10246 0.0026085 0.0011771 2 0.035612 -0.0039037 0.99936 0 255 0
0.10079 0.0035485 0.0012401 2 -0.39363 -0.37418 -0.83967 0 255 0
0.10138 0.0072985 -0.0037639 2 -0.035611 0.0039033 -0.99936 0 255 0
0.099856 0.0058085 -0.0037159 2 -0.035612 0.0039041 -0.99936 0 255 0
0.099416 0.0059285 0.0012991 2 -0.26166 0.78599 -0.56013 0 255 0
0.1018 0.0071885 0.0012191 2 -0.1849 -0.26192 -0.94721 0 255 0
0.10429 0.0030785 0.0011141 2 -0.58054 -0.31256 -0.75185 0 255 0
0.1045 0.0070285 -0.0038769 2 0.035612 -0.0039037 0.99936 0 255 0
0.10402 0.0056085 -0.0038649 2 -0.49101 0.86681 -0.086849 0 255 0
0.10616 0.0025185 0.0010451 2 -0.093661 -0.9956 -0.00055241 0 255 0
0.10795 0.0065885 -0.0040009 2 0.035612 -0.0039037 0.99936 0 255 0
0.10549 0.0039885 0.0010751 2 -0.018043 -0.99562 0.091719 0 255 0
0.10477 0.0066785 0.0011111 2 0.035613 -0.0039025 0.99936 0 255 0
0.10421 0.0042885 -0.0038769 2 0.035611 -0.0039023 0.99936 0 255 0
0.10671 0.0039785 0.0010311 2 -0.035612 0.0039037 -0.99936 0 255 0
0.1075 0.0050385 -0.0039909 2 -0.042492 -0.73864 -0.67276 0 255 0
0.1041 0.0027585 -0.0038789 2 0.035612 -0.003903 0.99936 0 255 0
0.10796 0.0052285 0.00099203 2 -0.043341 -0.019593 -0.99887 0 255 0
0.10552 0.0056785 -0.0039179 2 0.035612 -0.0039037 0.99936 0 255 0
0.10608 0.0067585 0.0010641 2 0.081326 -0.37913 -0.92176 0 255 0
0.10676 0.0065385 -0.0039589 2 0.035612 -0.0039037 0.99936 0 255 0
0.1047 0.0053085 0.0011081 2 0.22491 -0.96227 -0.15315 0 255 0
0.10664 0.0035785 -0.0039659 2 0.035612 -0.0039043 0.99936 0 255 0
0.10529 0.0029585 -0.0039199 2 0.0082733 -0.64331 -0.76556 0 255 0
0.108 0.0035385 -0.0040149 2 0.16813 -0.35614 -0.91918 0 255 0
0.10637 0.0047585 -0.0039519 2 0.047911 0.6485 -0.75971 0 255 0
0.10629 0.0053885 0.0010521 2 0.2699 -0.73443 -0.6227 0 255 0
